569174.2918682862 4606266.198448487 141.5879777908325 155 84 63
569177.8699932862 4606271.839073487 141.4786027908325 155 84 63
569177.7918682862 4606271.729698487 141.4629777908325 155 84 63
569177.7137432862 4606271.620323487 141.4786027908325 155 84 63
569177.5418682862 4606271.385948487 141.4942277908325 155 84 63
569177.4793682862 4606271.276573487 141.5098527908325 155 84 63
569177.4012432862 4606271.167198487 141.5254777908325 155 84 63
569177.3231182862 4606271.057823487 141.5567277908325 155 84 63
569177.2449932862 4606270.932823487 141.7286027908325 45 229 71
569177.1512432862 4606270.823448487 141.6973527908325 45 229 71
569177.0731182862 4606270.714073487 141.5567277908325 155 84 63
569176.9324932862 4606270.479698487 141.5098527908325 155 84 63
569176.8543682862 4606270.354698487 141.5098527908325 155 84 63
569176.7606182862 4606270.245323487 141.4786027908325 155 84 63
569176.6199932862 4606270.026573487 141.4942277908325 155 84 63
569176.5418682862 4606269.917198487 141.4942277908325 155 84 63
569176.2918682862 4606269.573448487 141.5098527908325 155 84 63
569176.2293682862 4606269.448448487 141.5098527908325 155 84 63
569176.0731182862 4606269.229698487 141.5098527908325 155 84 63
569175.8231182862 4606268.885948487 141.5098527908325 155 84 63
569175.7606182862 4606268.776573487 141.5254777908325 155 84 63
569175.5106182862 4606268.432823487 141.5098527908325 155 84 63
569175.4481182862 4606268.307823487 141.5098527908325 155 84 63
569175.2918682862 4606268.089073487 141.4786027908325 155 84 63
569175.2293682862 4606267.979698487 141.5098527908325 155 84 63
569175.0418682862 4606267.745323487 141.5098527908325 155 84 63
569174.6668682862 4606267.175010987 141.5254777908325 155 84 63
569174.2606182862 4606266.612510987 141.5879777908325 155 84 63
569177.5418682862 4606271.901573487 141.4473527908325 155 84 63
569177.4637432862 4606271.776573487 141.4629777908325 155 84 63
569177.2293682862 4606271.448448487 141.4786027908325 155 84 63
569177.1512432862 4606271.339073487 141.4942277908325 155 84 63
569177.0731182862 4606271.214073487 141.5254777908325 155 84 63
569176.9168682862 4606270.995323487 141.4942277908325 155 84 63
569176.8387432862 4606270.870323487 141.4786027908325 155 84 63
569176.6824932862 4606270.651573487 141.4786027908325 155 84 63
569176.3856182862 4606270.198448487 141.4629777908325 155 84 63
569176.2918682862 4606270.089073487 141.4629777908325 155 84 63
569176.2293682862 4606269.964073487 141.4786027908325 155 84 63
569176.0731182862 4606269.729698487 141.4942277908325 155 84 63
569175.9793682862 4606269.620323487 141.5098527908325 155 84 63
569175.9168682862 4606269.510948487 141.5254777908325 155 84 63
569175.8231182862 4606269.385948487 141.5254777908325 155 84 63
569175.6043682862 4606269.057823487 141.4786027908325 155 84 63
569175.3543682862 4606268.714073487 141.5098527908325 155 84 63
569175.2606182862 4606268.604698487 141.5254777908325 155 84 63
569175.1356182862 4606268.370323487 141.4786027908325 155 84 63
569175.0418682862 4606268.245323487 141.4786027908325 155 84 63
569174.7293682862 4606267.807823487 141.5254777908325 155 84 63
569174.5106182862 4606267.464073487 141.5254777908325 155 84 63
569174.4168682862 4606267.346885987 141.5098527908325 155 84 63
569177.4324932862 4606272.135948487 141.4786027908325 155 84 63
569177.2762432862 4606271.917198487 141.4473527908325 155 84 63
569177.1981182862 4606271.792198487 141.4786027908325 155 84 63
569177.1199932862 4606271.682823487 141.4786027908325 155 84 63
569177.0418682862 4606271.557823487 141.4786027908325 155 84 63
569176.9637432862 4606271.448448487 141.5098527908325 155 84 63
569176.8074932862 4606271.229698487 141.5254777908325 155 84 63
569176.7293682862 4606271.104698487 141.4942277908325 155 84 63
569176.5731182862 4606270.885948487 141.4786027908325 155 84 63
569176.4949932862 4606270.776573487 141.4786027908325 155 84 63
569176.4168682862 4606270.651573487 141.4629777908325 155 84 63
569176.3543682862 4606270.542198487 141.4473527908325 155 84 63
569176.1981182862 4606270.307823487 141.4786027908325 155 84 63
569175.9481182862 4606269.979698487 141.5098527908325 155 84 63
569175.7918682862 4606269.745323487 141.5254777908325 155 84 63
569175.7293682862 4606269.635948487 141.5254777908325 155 84 63
569175.5731182862 4606269.401573487 141.5254777908325 155 84 63
569175.4168682862 4606269.167198487 141.5098527908325 155 84 63
569174.6981182862 4606268.151573487 141.4942277908325 155 84 63
569174.5418682862 4606267.925010987 141.4786027908325 155 84 63
569174.3231182862 4606267.589073487 141.5098527908325 155 84 63
569174.2293682862 4606267.479698487 141.5098527908325 155 84 63
569177.2449932862 4606272.167198487 141.4786027908325 155 84 63
569177.0106182862 4606271.823448487 141.4473527908325 155 84 63
569176.9324932862 4606271.714073487 141.4473527908325 155 84 63
569176.7606182862 4606271.479698487 141.6661027908325 45 229 71
569176.5418682862 4606271.135948487 141.4786027908325 155 84 63
569176.4637432862 4606271.026573487 141.4786027908325 155 84 63
569176.2293682862 4606270.682823487 141.4786027908325 155 84 63
569176.1668682862 4606270.573448487 141.4786027908325 155 84 63
569176.0731182862 4606270.464073487 141.4786027908325 155 84 63
569176.0106182862 4606270.339073487 141.4942277908325 155 84 63
569175.9168682862 4606270.229698487 141.5098527908325 155 84 63
569175.6981182862 4606269.885948487 141.5098527908325 155 84 63
569175.6043682862 4606269.776573487 141.4786027908325 155 84 63
569175.5106182862 4606269.667198487 141.4942277908325 155 84 63
569175.4481182862 4606269.557823487 141.5098527908325 155 84 63
569175.3543682862 4606269.432823487 141.5098527908325 155 84 63
569175.2918682862 4606269.323448487 141.4786027908325 155 84 63
569175.1981182862 4606269.214073487 141.4942277908325 155 84 63
569175.1356182862 4606269.089073487 141.4942277908325 155 84 63
569175.0418682862 4606268.979698487 141.4942277908325 155 84 63
569174.7293682862 4606268.526573487 141.4942277908325 155 84 63
569174.6668682862 4606268.417198487 141.4786027908325 155 84 63
569174.5106182862 4606268.182823487 141.4786027908325 155 84 63
569174.2606182862 4606267.846885987 141.4786027908325 155 84 63
569176.7137432862 4606272.010948487 141.4473527908325 155 84 63
569176.6356182862 4606271.885948487 141.4473527908325 155 84 63
569176.5574932862 4606271.776573487 141.4786027908325 155 84 63
569176.4793682862 4606271.667198487 141.4786027908325 155 84 63
569176.4168682862 4606271.557823487 141.4786027908325 155 84 63
569176.2606182862 4606271.323448487 141.5098527908325 155 84 63
569176.1043682862 4606271.104698487 141.4786027908325 155 84 63
569176.0106182862 4606270.979698487 141.4786027908325 155 84 63
569175.9481182862 4606270.870323487 141.4473527908325 155 84 63
569175.8543682862 4606270.760948487 141.4629777908325 155 84 63
569175.6981182862 4606270.526573487 141.4473527908325 155 84 63
569175.6356182862 4606270.417198487 141.4786027908325 155 84 63
569175.3856182862 4606270.073448487 141.4629777908325 155 84 63
569175.3231182862 4606269.964073487 141.4786027908325 155 84 63
569175.2293682862 4606269.854698487 141.4786027908325 155 84 63
569175.1668682862 4606269.729698487 141.4786027908325 155 84 63
569175.0731182862 4606269.620323487 141.4786027908325 155 84 63
569175.0106182862 4606269.510948487 141.4786027908325 155 84 63
569174.9168682862 4606269.385948487 141.4629777908325 155 84 63
569174.8543682862 4606269.276573487 141.4473527908325 155 84 63
569174.7606182862 4606269.167198487 141.4629777908325 155 84 63
569174.6043682862 4606268.948448487 141.4786027908325 155 84 63
569174.5106182862 4606268.823448487 141.4786027908325 155 84 63
569174.3856182862 4606268.604698487 141.4942277908325 155 84 63
569174.2293682862 4606268.370323487 141.4786027908325 155 84 63
569176.3856182862 4606271.948448487 141.4473527908325 155 84 63
569176.2918682862 4606271.839073487 141.4629777908325 155 84 63
569176.1356182862 4606271.604698487 141.4473527908325 155 84 63
569175.8231182862 4606271.167198487 141.4786027908325 155 84 63
569175.6043682862 4606270.823448487 141.4786027908325 155 84 63
569175.3543682862 4606270.479698487 141.4473527908325 155 84 63
569175.1356182862 4606270.135948487 141.4942277908325 155 84 63
569174.9793682862 4606269.917198487 141.4786027908325 155 84 63
569174.8856182862 4606269.807823487 141.4786027908325 155 84 63
569174.5731182862 4606269.339073487 141.4786027908325 155 84 63
569174.3231182862 4606268.995323487 141.4942277908325 155 84 63
569176.4949932862 4606272.479698487 141.4473527908325 155 84 63
569176.2606182862 4606272.135948487 141.4317277908325 155 84 63
569176.1981182862 4606272.010948487 141.4161027908325 155 84 63
569176.0418682862 4606271.807823487 141.4317277908325 155 84 63
569175.9481182862 4606271.698448487 141.4317277908325 155 84 63
569175.7293682862 4606271.354698487 141.4786027908325 155 84 63
569175.6356182862 4606271.229698487 141.4786027908325 155 84 63
569175.5731182862 4606271.120323487 141.4786027908325 155 84 63
569175.3231182862 4606270.776573487 141.4629777908325 155 84 63
569175.1043682862 4606270.448448487 141.4786027908325 155 84 63
569174.9481182862 4606270.214073487 141.4786027908325 155 84 63
569174.8543682862 4606270.104698487 141.4786027908325 155 84 63
569174.6356182862 4606269.760948487 141.4786027908325 155 84 63
569174.4793682862 4606269.526573487 141.4786027908325 155 84 63
569174.2293682862 4606269.198448487 141.5098527908325 155 84 63
569176.2606182862 4606272.635948487 141.4473527908325 155 84 63
569176.0418682862 4606272.292198487 141.4317277908325 155 84 63
569175.9481182862 4606272.167198487 141.4317277908325 155 84 63
569175.8856182862 4606272.042198487 141.4473527908325 155 84 63
569175.7918682862 4606271.948448487 141.4473527908325 155 84 63
569175.7293682862 4606271.839073487 141.4004777908325 155 84 63
569175.6356182862 4606271.729698487 141.4473527908325 155 84 63
569175.4793682862 4606271.495323487 141.5098527908325 155 84 63
569175.4168682862 4606271.385948487 141.4786027908325 155 84 63
569175.2606182862 4606271.151573487 141.4629777908325 155 84 63
569175.1668682862 4606271.042198487 141.5098527908325 155 84 63
569175.0731182862 4606270.932823487 141.4786027908325 155 84 63
569174.9481182862 4606270.698448487 141.5098527908325 155 84 63
569174.8543682862 4606270.589073487 141.4786027908325 155 84 63
569174.7606182862 4606270.479698487 141.4629777908325 155 84 63
569174.4481182862 4606270.026573487 141.4473527908325 155 84 63
569174.3856182862 4606269.901573487 141.4473527908325 155 84 63
569174.2918682862 4606269.792198487 141.4786027908325 155 84 63
569174.2293682862 4606269.667198487 141.4473527908325 155 84 63
569176.0106182862 4606272.729698487 141.4317277908325 155 84 63
569175.9168682862 4606272.635948487 141.4473527908325 155 84 63
569175.8543682862 4606272.510948487 141.4786027908325 155 84 63
569175.6981182862 4606272.292198487 141.4473527908325 155 84 63
569175.4481182862 4606271.948448487 141.4317277908325 155 84 63
569175.3856182862 4606271.839073487 141.4473527908325 155 84 63
569175.2918682862 4606271.729698487 141.4629777908325 155 84 63
569175.2293682862 4606271.604698487 141.4786027908325 155 84 63
569175.1356182862 4606271.495323487 141.4786027908325 155 84 63
569175.0418682862 4606271.385948487 141.4786027908325 155 84 63
569174.9793682862 4606271.276573487 141.4786027908325 155 84 63
569174.8856182862 4606271.167198487 141.4629777908325 155 84 63
569174.8231182862 4606271.057823487 141.4786027908325 155 84 63
569174.7606182862 4606270.932823487 141.4942277908325 155 84 63
569174.6668682862 4606270.823448487 141.4942277908325 155 84 63
569174.5731182862 4606270.714073487 141.4786027908325 155 84 63
569174.5106182862 4606270.589073487 141.4786027908325 155 84 63
569174.4168682862 4606270.479698487 141.4942277908325 155 84 63
569174.2606182862 4606270.245323487 141.4629777908325 155 84 63
569175.7293682862 4606272.792198487 141.4317277908325 155 84 63
569175.6356182862 4606272.698448487 141.4317277908325 155 84 63
569175.4793682862 4606272.479698487 141.4473527908325 155 84 63
569175.3856182862 4606272.354698487 141.4317277908325 155 84 63
569175.3231182862 4606272.229698487 141.4473527908325 155 84 63
569175.0731182862 4606271.917198487 141.3848527908325 155 84 63
569175.0106182862 4606271.792198487 141.4473527908325 155 84 63
569174.8543682862 4606271.573448487 141.5098527908325 155 84 63
569174.6981182862 4606271.339073487 141.4786027908325 155 84 63
569174.6043682862 4606271.229698487 141.4786027908325 155 84 63
569174.4481182862 4606270.995323487 141.4473527908325 155 84 63
569174.3856182862 4606270.885948487 141.4786027908325 155 84 63
569174.2918682862 4606270.776573487 141.4786027908325 155 84 63
569174.2293682862 4606270.667198487 141.4786027908325 155 84 63
569175.4793682862 4606272.885948487 141.4473527908325 155 84 63
569175.3856182862 4606272.760948487 141.4473527908325 155 84 63
569175.3231182862 4606272.635948487 141.4473527908325 155 84 63
569175.1668682862 4606272.417198487 141.4473527908325 155 84 63
569175.0731182862 4606272.292198487 141.4317277908325 155 84 63
569175.0106182862 4606272.198448487 141.4161027908325 155 84 63
569174.8543682862 4606271.979698487 141.4161027908325 155 84 63
569174.2293682862 4606271.057823487 141.4786027908325 155 84 63
569175.1981182862 4606272.854698487 141.4473527908325 155 84 63
569175.1043682862 4606272.760948487 141.4473527908325 155 84 63
569174.7918682862 4606272.292198487 141.4161027908325 155 84 63
569174.7293682862 4606272.198448487 141.4161027908325 155 84 63
569174.5418682862 4606271.979698487 141.4317277908325 155 84 63
569174.4793682862 4606271.854698487 141.4473527908325 155 84 63
569174.4168682862 4606271.745323487 141.4786027908325 155 84 63
569174.8231182862 4606272.885948487 141.4629777908325 155 84 63
569174.7606182862 4606272.760948487 141.4629777908325 155 84 63
569174.6668682862 4606272.667198487 141.4473527908325 155 84 63
569174.5731182862 4606272.542198487 141.4473527908325 155 84 63
569174.4168682862 4606272.323448487 141.4161027908325 155 84 63
569174.3543682862 4606272.198448487 141.4161027908325 155 84 63
569174.5106182862 4606272.885948487 141.4629777908325 155 84 63
569174.4168682862 4606272.792198487 141.4473527908325 155 84 63
569174.2293682862 4606272.917198487 141.4161027908325 155 84 63
569071.3292179871 4606288.041729279 151.93032016754148 0 178 255
569071.3292179871 4606288.010479279 151.93032016754148 0 178 255
569071.3292179871 4606288.041729279 152.93032016754148 0 178 255
569071.2667179871 4606288.010479279 152.93032016754148 0 178 255
569071.2667179871 4606288.479229279 151.02407016754148 0 178 255
569070.8292179871 4606288.166729279 152.02407016754148 0 178 255
569070.8292179871 4606288.197979279 152.96157016754148 0 178 255
569070.7667179871 4606288.166729279 152.99282016754148 0 178 255
569070.7667179871 4606288.572979279 151.08657016754148 0 178 255
569070.3292179871 4606288.291729279 152.05532016754148 0 178 255
569070.3292179871 4606288.229229279 152.05532016754148 0 178 255
569070.3292179871 4606288.291729279 153.05532016754148 0 178 255
569070.2667179871 4606288.260479279 153.05532016754148 0 178 255
569070.3292179871 4606288.697979279 151.11782016754148 0 178 255
569070.2667179871 4606288.635479279 151.14907016754148 0 178 255
569069.8917179871 4606288.385479279 152.14907016754148 0 178 255
569069.8292179871 4606288.385479279 153.11782016754148 0 178 255
569069.8292179871 4606288.791729279 151.18032016754148 0 178 255
569069.7667179871 4606288.729229279 151.21157016754148 0 178 255
569069.3917179871 4606288.479229279 152.18032016754148 0 178 255
569069.3292179871 4606288.479229279 153.18032016754148 0 178 255
569069.2667179871 4606288.885479279 151.27407016754148 0 178 255
569069.2042179871 4606288.854229279 151.27407016754148 0 178 255
569068.8292179871 4606288.604229279 152.27407016754148 0 178 255
569068.8292179871 4606288.572979279 152.27407016754148 0 178 255
569068.8292179871 4606288.635479279 153.24282016754148 0 178 255
569068.7667179871 4606288.572979279 153.27407016754148 0 178 255
569068.7667179871 4606289.010479279 151.33657016754148 0 178 255
569068.7042179871 4606288.979229279 151.33657016754148 0 178 255
569068.3917179871 4606288.729229279 152.33657016754148 0 178 255
569068.3292179871 4606288.697979279 152.33657016754148 0 178 255
569068.3917179871 4606288.729229279 153.30532016754148 0 178 255
569068.3292179871 4606288.729229279 153.30532016754148 0 178 255
569068.2667179871 4606289.104229279 151.39907016754148 0 178 255
569068.2042179871 4606289.072979279 151.39907016754148 0 178 255
569067.8917179871 4606288.822979279 152.39907016754148 0 178 255
569067.8292179871 4606288.791729279 152.43032016754148 0 178 255
569067.8292179871 4606288.854229279 153.36782016754148 0 178 255
569067.8292179871 4606288.822979279 153.36782016754148 0 178 255
569067.7667179871 4606289.166729279 151.43032016754148 0 178 255
569067.3917179871 4606288.916729279 152.49282016754148 0 178 255
569067.3292179871 4606288.916729279 153.46157016754148 0 178 255
569066.9854679871 4606288.604229279 151.80532016754148 0 178 255
569066.8292179871 4606288.479229279 151.27407016754148 178 0 178
569066.7667179871 4606288.416729279 151.24282016754148 178 0 178
569066.7354679871 4606288.385479279 151.27407016754148 178 0 178
569066.7042179871 4606288.385479279 151.49282016754148 178 0 178
569066.6729679871 4606288.354229279 151.55532016754148 178 0 178
569066.6417179871 4606288.354229279 151.68032016754148 178 0 178
569066.6417179871 4606288.354229279 151.93032016754148 178 0 178
569066.4229679871 4606288.197979279 151.18032016754148 178 0 178
569066.3604679871 4606288.135479279 151.08657016754148 178 0 178
569066.3292179871 4606288.104229279 151.11782016754148 178 0 178
569066.2979679871 4606288.072979279 151.27407016754148 178 0 178
569066.2667179871 4606288.041729279 151.30532016754148 178 0 178
569066.1729679871 4606288.010479279 151.27407016754148 178 0 178
569067.2042179871 4606289.291729279 151.52407016754148 0 178 255
569066.0792179871 4606288.322979279 145.5865703128278 178 0 178
569066.0792179871 4606288.322979279 145.8365703165531 178 0 178
569066.0792179871 4606288.322979279 146.08657028675077 178 0 178
569066.0792179871 4606288.322979279 146.33657028675077 178 0 178
569066.0792179871 4606288.322979279 146.58657028675077 178 0 178
569066.0792179871 4606288.322979279 146.89907028675077 178 0 178
569066.0792179871 4606288.322979279 147.14907028675077 178 0 178
569066.0792179871 4606288.322979279 147.39907028675077 178 0 178
569066.0792179871 4606288.322979279 147.64907040596006 178 0 178
569066.8604679871 4606289.041729279 152.05532016754148 178 0 178
569066.0792179871 4606288.354229279 147.89907040596006 178 0 178
569066.9229679871 4606289.072979279 152.52407016754148 178 0 178
569066.0479679871 4606288.354229279 148.14907040596006 178 0 178
569066.8604679871 4606289.041729279 152.55532016754148 178 0 178
569066.0792179871 4606288.354229279 148.46157040596006 178 0 178
569066.0479679871 4606288.354229279 148.71157040596006 178 0 178
569066.0479679871 4606288.354229279 148.96157040596006 178 0 178
569066.8917179871 4606289.072979279 153.49282016754148 178 0 178
569066.0479679871 4606288.354229279 149.21157040596006 178 0 178
569066.8604679871 4606289.041729279 153.52407016754148 178 0 178
569066.2354679871 4606288.510479279 150.43032016754148 178 0 178
569066.0479679871 4606288.354229279 149.46157040596006 178 0 178
569066.7979679871 4606289.010479279 153.55532016754148 178 0 178
569066.2042179871 4606288.479229279 150.46157016754148 178 0 178
569066.2354679871 4606288.541729279 150.93032016754148 178 0 178
569066.0479679871 4606288.385479279 150.02407016754148 178 0 178
569066.2042179871 4606288.510479279 151.08657016754148 178 0 178
569066.2042179871 4606288.510479279 151.33657016754148 178 0 178
569066.1104679871 4606288.479229279 151.21157016754148 178 0 178
569066.0792179871 4606288.447979279 151.24282016754148 178 0 178
569066.1104679871 4606288.479229279 151.68032016754148 178 0 178
569066.0792179871 4606288.447979279 151.80532016754148 178 0 178
569066.0479679871 4606288.416729279 151.83657016754148 178 0 178
569066.0167179871 4606288.385479279 151.93032016754148 178 0 178
569066.0479679871 4606288.416729279 152.30532016754148 178 0 178
569066.0792179871 4606288.447979279 152.74282016754148 178 0 178
569066.0167179871 4606288.416729279 152.77407016754148 178 0 178
569065.9854679871 4606288.416729279 152.86782016754148 178 0 178
569066.0167179871 4606288.416729279 153.27407016754148 178 0 178
569066.0479679871 4606288.479229279 153.68032016754148 178 0 178
569066.0167179871 4606288.447979279 153.71157016754148 178 0 178
569065.9542179871 4606288.385479279 153.74282016754148 178 0 178
569065.8917179871 4606288.354229279 153.74282016754148 178 0 178
569065.8604679871 4606288.322979279 153.77407016754148 178 0 178
569065.7979679871 4606288.291729279 153.77407016754148 178 0 178
569065.7354679871 4606288.229229279 153.74282016754148 178 0 178
569065.7042179871 4606288.197979279 153.77407016754148 178 0 178
569066.7667179871 4606289.447979279 151.27407016754148 178 0 178
569066.7042179871 4606289.447979279 151.61782016754148 178 0 178
569066.6729679871 4606289.385479279 151.64907016754148 178 0 178
569066.3292179871 4606289.166729279 152.18032016754148 178 0 178
569066.3917179871 4606289.229229279 152.64907016754148 178 0 178
569066.3292179871 4606289.166729279 152.64907016754148 178 0 178
569066.2979679871 4606289.166729279 152.71157016754148 178 0 178
569066.0792179871 4606288.979229279 151.68032016754148 178 0 178
569066.3292179871 4606289.197979279 153.18032016754148 178 0 178
569066.0792179871 4606288.979229279 151.83657016754148 178 0 178
569066.3604679871 4606289.229229279 153.61782016754148 178 0 178
569066.0167179871 4606288.916729279 151.77407016754148 178 0 178
569066.3292179871 4606289.197979279 153.64907016754148 178 0 178
569065.9542179871 4606288.885479279 151.77407016754148 178 0 178
569066.2667179871 4606289.135479279 153.61782016754148 178 0 178
569066.0792179871 4606288.979229279 152.68032016754148 178 0 178
569065.8917179871 4606288.854229279 151.80532016754148 178 0 178
569066.0479679871 4606288.979229279 152.77407016754148 178 0 178
569065.9854679871 4606288.916729279 152.74282016754148 178 0 178
569065.9542179871 4606288.885479279 152.77407016754148 178 0 178
569066.0479679871 4606288.979229279 153.61782016754148 178 0 178
569065.8917179871 4606288.854229279 152.77407016754148 178 0 178
569066.0479679871 4606288.979229279 153.74282016754148 178 0 178
569065.9854679871 4606288.947979279 153.80532016754148 178 0 178
569065.9229679871 4606288.885479279 153.71157016754148 178 0 178
569065.8604679871 4606288.854229279 153.74282016754148 178 0 178
569065.2979679871 4606288.354229279 150.86782016754148 178 0 178
569065.8292179871 4606288.822979279 153.68032016754148 178 0 178
569065.2667179871 4606288.354229279 150.99282016754148 178 0 178
569065.5479679871 4606288.604229279 152.61782016754148 178 0 178
569065.4854679871 4606288.541729279 152.61782016754148 178 0 178
569065.4854679871 4606288.541729279 152.86782016754148 178 0 178
569065.2979679871 4606288.416729279 152.18032016754148 178 0 178
569065.2667179871 4606288.385479279 152.27407016754148 178 0 178
569065.2042179871 4606288.354229279 152.83657016754148 178 0 178
569065.1729679871 4606288.322979279 152.86782016754148 178 0 178
569065.1104679871 4606288.291729279 152.86782016754148 178 0 178
569065.0792179871 4606288.229229279 152.83657016754148 178 0 178
569065.0167179871 4606288.197979279 152.83657016754148 178 0 178
569066.3292179871 4606289.572979279 151.18032016754148 178 0 178
569066.2667179871 4606289.510479279 151.11782016754148 178 0 178
569066.2667179871 4606289.510479279 151.68032016754148 178 0 178
569066.2354679871 4606289.479229279 151.71157016754148 178 0 178
569066.1729679871 4606289.479229279 151.77407016754148 178 0 178
569066.1417179871 4606289.416729279 151.74282016754148 178 0 178
569066.0792179871 4606289.385479279 151.77407016754148 178 0 178
569066.0479679871 4606289.354229279 151.77407016754148 178 0 178
569065.9854679871 4606289.322979279 151.80532016754148 178 0 178
569065.9229679871 4606289.260479279 151.74282016754148 178 0 178
569065.8604679871 4606289.229229279 152.24282016754148 178 0 178
569065.8917179871 4606289.260479279 152.71157016754148 178 0 178
569065.8604679871 4606289.229229279 152.74282016754148 178 0 178
569065.8292179871 4606289.229229279 152.80532016754148 178 0 178
569065.8292179871 4606289.229229279 153.14907016754148 178 0 178
569065.8604679871 4606289.260479279 153.61782016754148 178 0 178
569065.3292179871 4606288.822979279 150.96157016754148 178 0 178
569065.8292179871 4606289.229229279 153.64907016754148 178 0 178
569065.2979679871 4606288.791729279 150.96157016754148 178 0 178
569065.1417179871 4606288.666729279 150.27407016754148 178 0 178
569065.7667179871 4606289.229229279 153.68032016754148 178 0 178
569065.2354679871 4606288.729229279 150.96157016754148 178 0 178
569065.1417179871 4606288.697979279 150.86782016754148 178 0 178
569065.1729679871 4606288.697979279 151.18032016754148 178 0 178
569065.1104679871 4606288.666729279 151.24282016754148 178 0 178
569065.0479679871 4606288.635479279 151.14907016754148 178 0 178
569064.9854679871 4606288.541729279 150.99282016754148 178 0 178
569064.9229679871 4606288.510479279 150.99282016754148 178 0 178
569065.0792179871 4606288.697979279 152.86782016754148 178 0 178
569065.0167179871 4606288.635479279 152.80532016754148 178 0 178
569064.9854679871 4606288.604229279 152.80532016754148 178 0 178
569064.9229679871 4606288.572979279 152.83657016754148 178 0 178
569064.8604679871 4606288.541729279 152.86782016754148 178 0 178
569064.8604679871 4606288.510479279 153.02407016754148 178 0 178
569064.8292179871 4606288.510479279 153.21157016754148 178 0 178
569064.8292179871 4606288.510479279 153.36782016754148 178 0 178
569064.7979679871 4606288.479229279 153.43032016754148 178 0 178
569065.7667179871 4606289.572979279 151.08657016754148 178 0 178
569065.7354679871 4606289.541729279 151.14907016754148 178 0 178
569065.7979679871 4606289.604229279 151.68032016754148 178 0 178
569065.7354679871 4606289.572979279 151.68032016754148 178 0 178
569065.6729679871 4606289.510479279 151.64907016754148 178 0 178
569065.4229679871 4606289.354229279 152.58657016754148 178 0 178
569065.3917179871 4606289.322979279 152.58657016754148 178 0 178
569065.3292179871 4606289.291729279 152.61782016754148 178 0 178
569065.3917179871 4606289.354229279 153.21157016754148 178 0 178
569065.0479679871 4606289.072979279 151.49282016754148 178 0 178
569065.3604679871 4606289.322979279 153.24282016754148 178 0 178
569065.3604679871 4606289.354229279 153.58657016754148 178 0 178
569065.3292179871 4606289.291729279 153.58657016754148 178 0 178
569065.2042179871 4606289.229229279 153.27407016754148 178 0 178
569065.1417179871 4606289.197979279 153.30532016754148 178 0 178
569065.1104679871 4606289.135479279 153.33657016754148 178 0 178
569065.0479679871 4606289.104229279 153.33657016754148 178 0 178
569065.0792179871 4606289.666729279 151.61782016754148 178 0 178
569065.0479679871 4606289.635479279 151.61782016754148 178 0 178
569064.6417179871 4606289.354229279 152.52407016754148 0 178 255
569064.5792179871 4606289.322979279 152.52407016754148 0 178 255
569064.6417179871 4606289.385479279 153.52407016754148 0 178 255
569064.4542179871 4606289.697979279 151.55532016754148 0 178 255
569064.0167179871 4606289.385479279 152.46157016754148 0 178 255
569063.9542179871 4606289.322979279 152.46157016754148 0 178 255
569064.0479679871 4606289.447979279 153.46157016754148 0 178 255
569064.0167179871 4606289.385479279 153.49282016754148 0 178 255
569064.0167179871 4606289.760479279 151.52407016754148 0 178 255
569063.9542179871 4606289.729229279 151.52407016754148 0 178 255
569063.4854679871 4606289.416729279 152.43032016754148 0 178 255
569063.4542179871 4606289.385479279 152.43032016754148 0 178 255
569063.5479679871 4606289.479229279 153.43032016754148 0 178 255
569063.3917179871 4606289.791729279 151.52407016754148 0 178 255
569063.3292179871 4606289.760479279 151.49282016754148 0 178 255
569062.8292179871 4606289.416729279 152.36782016754148 0 178 255
569062.7667179871 4606289.385479279 152.36782016754148 0 178 255
569062.9229679871 4606289.510479279 153.39907016754148 0 178 255
569062.8917179871 4606289.479229279 153.43032016754148 0 178 255
569062.7042160798 4606289.854229279 151.43032016754148 0 178 255
569062.6417160798 4606289.791729279 151.46157016754148 0 178 255
569062.1417160798 4606289.447979279 152.30532016754148 0 178 255
569062.0792160798 4606289.416729279 152.30532016754148 0 178 255
569062.2667160798 4606289.572979279 153.36782016754148 0 178 255
569062.1104660798 4606289.885479279 151.39907016754148 0 178 255
569061.5479660798 4606289.510479279 152.27407016754148 0 178 255
569061.7354660798 4606289.666729279 153.30532016754148 0 178 255
569061.4854660798 4606289.479229279 152.27407016754148 0 178 255
569061.6729660798 4606289.604229279 153.30532016754148 0 178 255
569061.5479660798 4606289.947979279 151.36782016754148 0 178 255
569061.1729660798 4606289.697979279 153.27407016754148 0 178 255
569060.9229660798 4606289.510479279 152.24282016754148 0 178 255
569061.1104660798 4606289.666729279 153.27407016754148 0 178 255
569060.9542160798 4606289.979229279 151.33657016754148 0 178 255
569060.3292160798 4606289.541729279 152.18032016754148 0 178 255
569060.5167160798 4606289.697979279 153.24282016754148 0 178 255
569060.2979660798 4606289.510479279 152.18032016754148 0 178 255
569060.3604660798 4606290.072979279 151.30532016754148 0 178 255
569060.3292160798 4606290.041729279 151.30532016754148 0 178 255
569059.9229660798 4606289.822979279 153.21157016754148 0 178 255
569059.8604660798 4606289.760479279 153.21157016754148 0 178 255
569059.6417160798 4606289.572979279 152.14907016754148 0 178 255
569059.7354660798 4606290.104229279 151.24282016754148 0 178 255
569059.6729660798 4606290.072979279 151.27407016754148 0 178 255
569059.2979660798 4606289.854229279 153.18032016754148 0 178 255
569059.2667160798 4606289.791729279 153.18032016754148 0 178 255
569059.0167160798 4606289.604229279 152.08657016754148 0 178 255
569058.9698410798 4606289.572979279 152.08657016754148 0 178 255
569059.2042160798 4606290.166729279 151.24282016754148 0 178 255
569058.7823410798 4606289.885479279 153.14907016754148 0 178 255
569058.4698410798 4606289.635479279 152.02407016754148 0 178 255
569058.4229660798 4606289.604229279 152.05532016754148 0 178 255
569058.5948410798 4606290.197979279 151.18032016754148 0 178 255
569058.5479660798 4606290.197979279 151.18032016754148 0 178 255
569058.1729660798 4606289.947979279 153.08657016754148 0 178 255
569058.1260910798 4606289.916729279 153.11782016754148 0 178 255
569057.7979660798 4606289.666729279 151.96157016754148 0 178 255
569057.7510910798 4606289.635479279 151.99282016754148 0 178 255
569057.9073410798 4606290.260479279 151.18032016754148 0 178 255
569057.4854660798 4606289.979229279 153.08657016754148 0 178 255
569057.1104660798 4606289.697979279 151.93032016754148 0 178 255
569057.3760910798 4606290.322979279 151.11782016754148 0 178 255
569056.9542160798 4606290.041729279 153.05532016754148 0 178 255
569056.5792160798 4606289.760479279 151.89907016754148 0 178 255
569056.5167160798 4606289.729229279 151.89907016754148 0 178 255
569056.7667160798 4606290.322979279 151.08657016754148 0 178 255
569056.3448410798 4606290.104229279 152.99282016754148 0 178 255
569055.9229660798 4606289.760479279 151.86782016754148 0 178 255
569055.8604660798 4606289.729229279 151.86782016754148 0 178 255
569056.1573410798 4606290.385479279 151.08657016754148 0 178 255
569055.7354660798 4606290.135479279 152.96157016754148 0 178 255
569055.2979660798 4606289.791729279 151.80532016754148 0 178 255
569055.2354660798 4606289.760479279 151.83657016754148 0 178 255
569055.6260910798 4606290.510479279 151.02407016754148 0 178 255
569055.5792160798 4606290.447979279 151.02407016754148 0 178 255
569055.1651535798 4606290.197979279 152.93032016754148 0 178 255
569054.6651535798 4606289.822979279 151.80532016754148 0 178 255
569054.9464035798 4606290.510479279 151.02407016754148 0 178 255
569054.5323410798 4606290.260479279 152.93032016754148 0 178 255
569054.4854660798 4606290.197979279 152.93032016754148 0 178 255
569053.9776535798 4606289.854229279 151.74282016754148 0 178 255
569054.3995285798 4606290.572979279 150.99282016754148 0 178 255
569054.3448410798 4606290.510479279 150.99282016754148 0 178 255
569053.9932785798 4606290.322979279 152.93032016754148 0 178 255
569053.9385910798 4606290.260479279 152.89907016754148 0 178 255
569053.4229660798 4606289.916729279 151.74282016754148 0 178 255
569053.3760910798 4606289.854229279 151.74282016754148 0 178 255
569053.8526535798 4606290.572979279 150.96157016754148 0 178 255
569053.4464035798 4606290.322979279 152.86782016754148 0 178 255
569053.3995285798 4606290.322979279 152.86782016754148 0 178 255
569052.8292160798 4606289.916729279 151.71157016754148 0 178 255
569053.2042160798 4606290.697979279 150.89907016754148 0 178 255
569053.1573410798 4606290.635479279 150.93032016754148 0 178 255
569052.7589035798 4606290.385479279 152.83657016754148 0 178 255
569052.7081223298 4606290.385479279 152.83657016754148 0 178 255
569052.1299973298 4606289.979229279 151.68032016754148 0 178 255
569052.0792160798 4606289.916729279 151.68032016754148 0 178 255
569052.5987473298 4606290.760479279 150.93032016754148 0 178 255
569052.5479660798 4606290.697979279 150.89907016754148 0 178 255
569052.1495285798 4606290.447979279 152.80532016754148 0 178 255
569052.0987473298 4606290.447979279 152.83657016754148 0 178 255
569051.4590988923 4606289.979229279 151.64907016754148 0 178 255
569052.0596848298 4606290.760479279 150.86782016754148 0 178 255
569052.0089035798 4606290.760479279 150.86782016754148 0 178 255
569051.6192551423 4606290.510479279 152.80532016754148 0 178 255
569050.9200363923 4606290.010479279 151.61782016754148 0 178 255
569051.4498215485 4606290.822979279 150.86782016754148 0 178 255
569051.409782486 4606290.760479279 150.89907016754148 0 178 255
569051.0103684235 4606290.510479279 152.77407016754148 0 178 255
569050.3018723298 4606290.041729279 151.58657016754148 0 178 255
569050.2510910798 4606290.010479279 151.55532016754148 0 178 255
569050.7901535798 4606290.885479279 150.83657016754148 0 178 255
569050.7305832673 4606290.822979279 150.83657016754148 0 178 255
569050.3409348298 4606290.635479279 152.74282016754148 0 178 255
569050.2803879548 4606290.572979279 152.74282016754148 0 178 255
569049.5831223298 4606290.072979279 151.55532016754148 0 178 255
569049.5323410798 4606290.041729279 151.55532016754148 0 178 255
569050.1924973298 4606290.947979279 150.80532016754148 0 178 255
569050.1417160798 4606290.885479279 150.80532016754148 0 178 255
569049.7628098298 4606290.635479279 152.74282016754148 0 178 255
569048.9932785798 4606290.135479279 151.52407016754148 0 178 255
569048.9464035798 4606290.104229279 151.55532016754148 0 178 255
569049.6026535798 4606290.947979279 150.80532016754148 0 178 255
569049.2237473298 4606290.697979279 152.71157016754148 0 178 255
569049.1651535798 4606290.697979279 152.71157016754148 0 178 255
569048.4073410798 4606290.166729279 151.52407016754148 0 178 255
569048.3448410798 4606290.104229279 151.49282016754148 0 178 255
569049.0870285798 4606291.010479279 150.77407016754148 0 178 255
569049.0245285798 4606291.010479279 150.77407016754148 0 178 255
569048.6417160798 4606290.760479279 152.68032016754148 0 178 255
569048.5948410798 4606290.697979279 152.71157016754148 0 178 255
569047.7510910798 4606290.135479279 151.49282016754148 0 178 255
569048.3839035798 4606291.072979279 150.74282016754148 0 178 255
569047.9542160798 4606290.822979279 152.68032016754148 0 178 255
569047.0635910798 4606290.197979279 151.46157016754148 0 178 255
569047.7901535798 4606291.135479279 150.74282016754148 0 178 255
569047.3604660798 4606290.885479279 152.64907016754148 0 178 255
569046.4698420335 4606290.197979279 151.43032016754148 0 178 255
569046.4229670335 4606290.197979279 151.43032016754148 0 178 255
569047.3370285798 4606291.197979279 150.71157016754148 0 178 255
569047.2745285798 4606291.135479279 150.71157016754148 0 178 255
569046.9073410798 4606290.947979279 152.61782016754148 0 178 255
569046.8604660798 4606290.885479279 152.64907016754148 0 178 255
569045.9542170335 4606290.260479279 151.43032016754148 0 178 255
569045.8917170335 4606290.197979279 151.43032016754148 0 178 255
569046.6729670335 4606291.260479279 150.68032016754148 0 178 255
569046.2510920335 4606290.947979279 152.61782016754148 0 178 255
569045.2823420335 4606290.322979279 151.43032016754148 0 178 255
569045.2354670335 4606290.260479279 151.39907016754148 0 178 255
569046.0792170335 4606291.322979279 150.71157016754148 0 178 255
569046.0167170335 4606291.260479279 150.68032016754148 0 178 255
569045.6417170335 4606291.010479279 152.61782016754148 0 178 255
569045.5948420335 4606291.010479279 152.61782016754148 0 178 255
569044.6104670335 4606290.322979279 151.36782016754148 0 178 255
569044.5792170335 4606290.260479279 151.43032016754148 0 178 255
569045.5010920335 4606291.322979279 150.68032016754148 0 178 255
569045.0948420335 4606291.072979279 152.58657016754148 0 178 255
569044.0635920335 4606290.385479279 151.39907016754148 0 178 255
569044.0010920335 4606290.322979279 151.36782016754148 0 178 255
569044.9229670335 4606291.385479279 150.64907016754148 0 178 255
569044.5167170335 4606291.135479279 152.58657016754148 0 178 255
569044.4542170335 4606291.072979279 152.58657016754148 0 178 255
569043.4229670335 4606290.385479279 151.36782016754148 0 178 255
569043.3604670335 4606290.322979279 151.36782016754148 0 178 255
569044.3604670335 4606291.447979279 150.64907016754148 0 178 255
569043.9542170335 4606291.135479279 152.58657016754148 0 178 255
569043.9073420335 4606291.135479279 152.61782016754148 0 178 255
569042.8604670335 4606290.385479279 151.36782016754148 0 178 255
569042.8292170335 4606290.385479279 151.36782016754148 0 178 255
569043.7979670335 4606291.510479279 150.64907016754148 0 178 255
569043.7510920335 4606291.447979279 150.64907016754148 0 178 255
569043.3917170335 4606291.260479279 152.55532016754148 0 178 255
569043.3448420335 4606291.197979279 152.55532016754148 0 178 255
569042.2354670335 4606290.447979279 151.33657016754148 0 178 255
569042.2042170335 4606290.385479279 151.36782016754148 0 178 255
569043.1417170335 4606291.572979279 150.61782016754148 0 178 255
569043.1104670335 4606291.510479279 150.64907016754148 0 178 255
569042.7667170335 4606291.322979279 152.55532016754148 0 178 255
569042.7042170335 4606291.260479279 152.55532016754148 0 178 255
569041.5479670335 4606290.447979279 151.33657016754148 0 178 255
569041.4854670335 4606290.447979279 151.33657016754148 0 178 255
569042.6417170335 4606291.572979279 150.61782016754148 0 178 255
569042.5792170335 4606291.572979279 150.61782016754148 0 178 255
569042.1729670335 4606291.322979279 152.55532016754148 0 178 255
569040.9542170335 4606290.447979279 151.33657016754148 0 178 255
569042.1104670335 4606291.635479279 150.61782016754148 0 178 255
569042.0479670335 4606291.572979279 150.58657016754148 0 178 255
569041.7042170335 4606291.385479279 152.52407016754148 0 178 255
569041.6417170335 4606291.322979279 152.55532016754148 0 178 255
569040.4229670335 4606290.510479279 151.30532016754148 0 178 255
569040.3604670335 4606290.447979279 151.33657016754148 0 178 255
569041.4542170335 4606291.697979279 150.58657016754148 0 178 255
569041.3917170335 4606291.697979279 150.61782016754148 0 178 255
569041.0167170335 4606291.447979279 152.52407016754148 0 178 255
569039.7354670335 4606290.510479279 151.30532016754148 0 178 255
569040.8292170335 4606291.697979279 150.58657016754148 0 178 255
569040.4229670335 4606291.447979279 152.52407016754148 0 178 255
569040.3917170335 4606291.447979279 152.52407016754148 0 178 255
569039.0792170335 4606290.572979279 151.30532016754148 0 178 255
569040.3604670335 4606291.822979279 150.58657016754148 0 178 255
569040.2979670335 4606291.760479279 150.58657016754148 0 178 255
569039.9229670335 4606291.510479279 152.49282016754148 0 178 255
569038.5792170335 4606290.572979279 151.30532016754148 0 178 255
569039.7667170335 4606291.822979279 150.58657016754148 0 178 255
569039.3292170335 4606291.572979279 152.52407016754148 0 178 255
569037.9542170335 4606290.635479279 151.30532016754148 0 178 255
569039.1104670335 4606291.885479279 150.55532016754148 0 178 255
569038.7354670335 4606291.635479279 152.52407016754148 0 178 255
569038.6729670335 4606291.572979279 152.52407016754148 0 178 255
569037.3292170335 4606290.697979279 151.30532016754148 0 178 255
569037.2667170335 4606290.635479279 151.30532016754148 0 178 255
569038.5479670335 4606291.947979279 150.55532016754148 0 178 255
569038.1104670335 4606291.697979279 152.49282016754148 0 178 255
569036.7042170335 4606290.697979279 151.30532016754148 0 178 255
569036.6417170335 4606290.697979279 151.30532016754148 0 178 255
569038.0167170335 4606291.947979279 150.55532016754148 0 178 255
569037.6417170335 4606291.697979279 152.49282016754148 0 178 255
569037.6104670335 4606291.697979279 152.49282016754148 0 178 255
569036.1729670335 4606290.697979279 151.30532016754148 0 178 255
569036.1104670335 4606290.697979279 151.30532016754148 0 178 255
569037.5479670335 4606292.072979279 150.55532016754148 0 178 255
569037.4854670335 4606292.010479279 150.55532016754148 0 178 255
569037.1104670335 4606291.760479279 152.46157016754148 0 178 255
569037.0479670335 4606291.760479279 152.49282016754148 0 178 255
569035.5792170335 4606290.760479279 151.33657016754148 0 178 255
569036.8604670335 4606292.135479279 150.55532016754148 0 178 255
569036.8292170335 4606292.072979279 150.55532016754148 0 178 255
569036.4229670335 4606291.822979279 152.49282016754148 0 178 255
569036.3917170335 4606291.822979279 152.52407016754148 0 178 255
569034.8917170335 4606290.822979279 151.30532016754148 0 178 255
569034.8292170335 4606290.760479279 151.30532016754148 0 178 255
569036.2354670335 4606292.135479279 150.58657016754148 0 178 255
569035.8604670335 4606291.885479279 152.52407016754148 0 178 255
569035.7979670335 4606291.822979279 152.49282016754148 0 178 255
569034.266716795 4606290.822979279 151.33657016754148 0 178 255
569034.204216795 4606290.760479279 151.33657016754148 0 178 255
569035.7667170335 4606292.197979279 150.55532016754148 0 178 255
569035.3604670335 4606291.947979279 152.49282016754148 0 178 255
569033.766716795 4606290.822979279 151.33657016754148 0 178 255
569035.2042170335 4606292.260479279 150.55532016754148 0 178 255
569035.1417170335 4606292.197979279 150.58657016754148 0 178 255
569034.7667170335 4606291.947979279 152.49282016754148 0 178 255
569034.704216795 4606291.947979279 152.49282016754148 0 178 255
569033.079216795 4606290.885479279 151.33657016754148 0 178 255
569034.579216795 4606292.260479279 150.55532016754148 0 178 255
569034.516716795 4606292.260479279 150.55532016754148 0 178 255
569034.141716795 4606292.010479279 152.49282016754148 0 178 255
569034.079216795 4606292.010479279 152.52407016754148 0 178 255
569032.4542169143 4606290.947979279 151.36782016754148 0 178 255
569032.3917169143 4606290.885479279 151.36782016754148 0 178 255
569034.016716795 4606292.322979279 150.55532016754148 0 178 255
569033.579216795 4606292.072979279 152.52407016754148 0 178 255
569033.516716795 4606292.072979279 152.49282016754148 0 178 255
569031.8292169143 4606290.947979279 151.36782016754148 0 178 255
569033.391716795 4606292.385479279 150.55532016754148 0 178 255
569033.016716795 4606292.135479279 152.49282016754148 0 178 255
569032.954216795 4606292.072979279 152.55532016754148 0 178 255
569031.2667168546 4606290.947979279 151.36782016754148 0 178 255
569031.2042168844 4606290.947979279 151.33657016754148 0 178 255
569032.891716795 4606292.447979279 150.55532016754148 0 178 255
569032.829216795 4606292.385479279 150.58657016754148 0 178 255
569032.3917169143 4606292.135479279 152.52407016754148 0 178 255
569032.2667169143 4606292.510479279 150.55532016754148 0 178 255
569032.2042169143 4606292.447979279 150.55532016754148 0 178 255
569031.8292169143 4606292.260479279 152.49282016754148 0 178 255
569031.8292169143 4606292.197979279 152.52407016754148 0 178 255
569031.6417168546 4606292.510479279 150.55532016754148 0 178 255
569031.2667168546 4606292.260479279 152.52407016754148 0 178 255
569031.2042168844 4606292.260479279 152.52407016754148 0 178 255
569031.0167168844 4606292.572979279 150.58657016754148 0 178 255
569112.5773373414 4606278.666729279 148.77407040596006 0 178 255
569112.6398373414 4606278.744854279 149.96157016754148 0 178 255
569112.2023373414 4606278.869854279 149.96157016754148 0 178 255
569112.0773373414 4606278.744854279 148.77407040596006 0 178 255
569111.8898373414 4606278.979229279 149.96157016754148 0 178 255
569111.7023373414 4606278.869854279 148.83657040596006 0 178 255
569112.3273373414 4606279.916729279 148.46157040596006 0 178 255
569111.4523373414 4606279.041729279 149.96157016754148 0 178 255
569111.3273373414 4606278.932354279 148.83657040596006 0 178 255
569111.8898373414 4606279.963604279 148.46157040596006 0 178 255
569111.0773373414 4606279.135479279 149.96157016754148 0 178 255
569110.9523373414 4606279.026104279 148.83657040596006 0 178 255
569111.4523373414 4606280.072979279 148.46157040596006 0 178 255
569110.6398373414 4606279.244854279 150.02407016754148 0 178 255
569110.5148373414 4606279.135479279 148.83657040596006 0 178 255
569111.0148373414 4606280.151104279 148.46157040596006 0 178 255
569110.2023373414 4606279.338604279 150.02407016754148 0 178 255
569110.0773373414 4606279.229229279 148.83657040596006 0 178 255
569110.7023373414 4606280.244854279 148.46157040596006 0 178 255
569109.8898373414 4606279.432354279 150.02407016754148 0 178 255
569109.7648373414 4606279.307354279 148.83657040596006 0 178 255
569109.8273373414 4606279.385479279 149.96157016754148 0 178 255
569110.2648373414 4606280.307354279 148.46157040596006 0 178 255
569109.3898373414 4606279.432354279 148.83657040596006 0 178 255
569109.4523373414 4606279.494854279 150.02407016754148 0 178 255
569109.8273373414 4606280.416729279 148.46157040596006 0 178 255
569109.0148373414 4606279.604229279 150.02407016754148 0 178 255
569108.8898373414 4606279.494854279 148.89907040596006 0 178 255
569108.9523373414 4606279.557354279 150.05532016754148 0 178 255
569109.4523373414 4606280.494854279 148.46157040596006 0 178 255
569108.6398373414 4606279.697979279 150.02407016754148 0 178 255
569108.5148373414 4606279.572979279 148.89907040596006 0 178 255
569109.0773373414 4606280.588604279 148.46157040596006 0 178 255
569108.2648373414 4606279.776104279 150.02407016754148 0 178 255
569108.1398373414 4606279.666729279 148.89907040596006 0 178 255
569108.6398373414 4606280.666729279 148.46157040596006 0 178 255
569108.5773373414 4606280.619854279 148.52407040596006 0 178 255
569107.8585873414 4606279.854229279 150.05532016754148 0 178 255
569107.7023373414 4606279.744854279 148.89907040596006 0 178 255
569107.7960873414 4606279.807354279 150.05532016754148 0 178 255
569108.2648373414 4606280.776104279 148.46157040596006 0 178 255
569108.2648373414 4606280.744854279 148.52407040596006 0 178 255
569107.4835873414 4606279.979229279 150.05532016754148 0 178 255
569107.3585873414 4606279.869854279 148.89907040596006 0 178 255
569107.4523373414 4606279.947979279 150.05532016754148 0 178 255
569107.8898373414 4606280.869854279 148.52407040596006 0 178 255
569107.8273373414 4606280.822979279 148.52407040596006 0 178 255
569107.0773373414 4606280.057354279 150.08657016754148 0 178 255
569106.9210873414 4606279.947979279 148.96157040596006 0 178 255
