569062.7042160798 4606289.854229279 151.43032016754148 255 176 25
569062.6417160798 4606289.791729279 151.46157016754148 255 174 25
569062.1417160798 4606289.447979279 152.30532016754148 255 127 25
569062.0792160798 4606289.416729279 152.30532016754148 255 127 25
569062.2667160798 4606289.572979279 153.36782016754148 255 68 25
569062.1104660798 4606289.885479279 151.39907016754148 255 178 25
569061.5479660798 4606289.510479279 152.27407016754148 255 129 25
569061.7354660798 4606289.666729279 153.30532016754148 255 71 25
569061.4854660798 4606289.479229279 152.27407016754148 255 129 25
569061.6729660798 4606289.604229279 153.30532016754148 255 71 25
569061.5479660798 4606289.947979279 151.36782016754148 255 180 25
569061.1729660798 4606289.697979279 153.27407016754148 255 73 25
569060.9229660798 4606289.510479279 152.24282016754148 255 131 25
569061.1104660798 4606289.666729279 153.27407016754148 255 73 25
569060.9542160798 4606289.979229279 151.33657016754148 255 181 25
569060.3292160798 4606289.541729279 152.18032016754148 255 134 25
569060.5167160798 4606289.697979279 153.24282016754148 255 75 25
569060.2979660798 4606289.510479279 152.18032016754148 255 134 25
569060.3604660798 4606290.072979279 151.30532016754148 255 183 25
569060.3292160798 4606290.041729279 151.30532016754148 255 183 25
569059.9229660798 4606289.822979279 153.21157016754148 255 76 25
569059.8604660798 4606289.760479279 153.21157016754148 255 76 25
569059.6417160798 4606289.572979279 152.14907016754148 255 136 25
569059.7354660798 4606290.104229279 151.24282016754148 255 187 25
569059.6729660798 4606290.072979279 151.27407016754148 255 185 25
569059.2979660798 4606289.854229279 153.18032016754148 255 78 25
569059.2667160798 4606289.791729279 153.18032016754148 255 78 25
569059.0167160798 4606289.604229279 152.08657016754148 255 139 25
569058.9698410798 4606289.572979279 152.08657016754148 255 139 25
569059.2042160798 4606290.166729279 151.24282016754148 255 187 25
569058.7823410798 4606289.885479279 153.14907016754148 255 80 25
569058.4698410798 4606289.635479279 152.02407016754148 255 143 25
569058.4229660798 4606289.604229279 152.05532016754148 255 141 25
569058.5948410798 4606290.197979279 151.18032016754148 255 190 25
569058.1729660798 4606289.947979279 153.08657016754148 255 83 25
569058.1260910798 4606289.916729279 153.11782016754148 255 82 25
569112.5773373414 4606278.666729279 148.77407040596006 184 255 25
569112.6398373414 4606278.744854279 149.96157016754148 251 255 25
569112.2023373414 4606278.869854279 149.96157016754148 251 255 25
569112.0773373414 4606278.744854279 148.77407040596006 184 255 25
569111.8898373414 4606278.979229279 149.96157016754148 251 255 25
569111.7023373414 4606278.869854279 148.83657040596006 188 255 25
569112.3273373414 4606279.916729279 148.46157040596006 167 255 25
569111.4523373414 4606279.041729279 149.96157016754148 251 255 25
569111.3273373414 4606278.932354279 148.83657040596006 188 255 25
569111.8898373414 4606279.963604279 148.46157040596006 167 255 25
569111.0773373414 4606279.135479279 149.96157016754148 251 255 25
569110.9523373414 4606279.026104279 148.83657040596006 188 255 25
569111.4523373414 4606280.072979279 148.46157040596006 167 255 25
569110.6398373414 4606279.244854279 150.02407016754148 254 255 25
569110.5148373414 4606279.135479279 148.83657040596006 188 255 25
569111.0148373414 4606280.151104279 148.46157040596006 167 255 25
569110.2023373414 4606279.338604279 150.02407016754148 254 255 25
569110.0773373414 4606279.229229279 148.83657040596006 188 255 25
569110.7023373414 4606280.244854279 148.46157040596006 167 255 25
569109.8898373414 4606279.432354279 150.02407016754148 254 255 25
569109.7648373414 4606279.307354279 148.83657040596006 188 255 25
569109.8273373414 4606279.385479279 149.96157016754148 251 255 25
569110.2648373414 4606280.307354279 148.46157040596006 167 255 25
569109.3898373414 4606279.432354279 148.83657040596006 188 255 25
569109.4523373414 4606279.494854279 150.02407016754148 254 255 25
569109.8273373414 4606280.416729279 148.46157040596006 167 255 25
569109.0148373414 4606279.604229279 150.02407016754148 254 255 25
569108.8898373414 4606279.494854279 148.89907040596006 191 255 25
569108.9523373414 4606279.557354279 150.05532016754148 255 253 25
569109.4523373414 4606280.494854279 148.46157040596006 167 255 25
569108.6398373414 4606279.697979279 150.02407016754148 254 255 25
569108.5148373414 4606279.572979279 148.89907040596006 191 255 25
569109.0773373414 4606280.588604279 148.46157040596006 167 255 25
569108.2648373414 4606279.776104279 150.02407016754148 254 255 25
569108.1398373414 4606279.666729279 148.89907040596006 191 255 25
569108.6398373414 4606280.666729279 148.46157040596006 167 255 25
569108.5773373414 4606280.619854279 148.52407040596006 170 255 25
569107.8585873414 4606279.854229279 150.05532016754148 255 253 25
569107.7023373414 4606279.744854279 148.89907040596006 191 255 25
569107.7960873414 4606279.807354279 150.05532016754148 255 253 25
569108.2648373414 4606280.776104279 148.46157040596006 167 255 25
569108.2648373414 4606280.744854279 148.52407040596006 170 255 25
569107.4835873414 4606279.979229279 150.05532016754148 255 253 25
569107.3585873414 4606279.869854279 148.89907040596006 191 255 25
569107.4523373414 4606279.947979279 150.05532016754148 255 253 25
569107.8898373414 4606280.869854279 148.52407040596006 170 255 25
569107.8273373414 4606280.822979279 148.52407040596006 170 255 25
569107.0773373414 4606280.057354279 150.08657016754148 255 251 25
569106.9210873414 4606279.947979279 148.96157040596006 195 255 25
569107.4835873414 4606280.916729279 148.52407040596006 170 255 25
569107.4210873414 4606280.885479279 148.52407040596006 170 255 25
569106.6710873414 4606280.119854279 150.08657016754148 255 251 25
569106.5460873414 4606280.010479279 148.96157040596006 195 255 25
569107.1398373414 4606280.994854279 148.52407040596006 170 255 25
569106.2648373414 4606280.135479279 148.96157040596006 195 255 25
569106.3585873414 4606280.197979279 150.11782016754148 255 250 25
569106.6710873414 4606281.072979279 148.52407040596006 170 255 25
569105.8898373414 4606280.322979279 150.11782016754148 255 250 25
569105.7648373414 4606280.197979279 148.96157040596006 195 255 25
569106.3273373414 4606281.166729279 148.52407040596006 170 255 25
569106.2648373414 4606281.135479279 148.58657040596006 174 255 25
569105.4210873414 4606280.307354279 148.96157040596006 195 255 25
569105.5148373414 4606280.385479279 150.14907016754148 255 248 25
569105.9835873414 4606281.229229279 148.52407040596006 170 255 25
569105.2335873414 4606280.479229279 150.14907016754148 255 248 25
569105.0773373414 4606280.369854279 149.02407040596006 198 255 25
569105.5773373414 4606281.307354279 148.58657040596006 174 255 25
569104.8273373414 4606280.557354279 150.14907016754148 255 248 25
569104.6710873414 4606280.447979279 149.02407040596006 198 255 25
569104.7648373414 4606280.526104279 150.18032016754148 255 246 25
569105.2023373414 4606281.385479279 148.58657040596006 174 255 25
569104.4523373414 4606280.651104279 150.18032016754148 255 246 25
569104.2960873414 4606280.541729279 149.08657040596006 202 255 25
569104.3898373414 4606280.619854279 150.18032016754148 255 246 25
569104.8585873414 4606281.494854279 148.58657040596006 174 255 25
569104.7960873414 4606281.447979279 148.58657040596006 174 255 25
569103.9523373414 4606280.635479279 149.08657040596006 202 255 25
569104.0460873414 4606280.713604279 150.18032016754148 255 246 25
569104.4523373414 4606281.526104279 148.58657040596006 174 255 25
569103.6398373414 4606280.729229279 149.14907040596006 205 255 25
569103.7023373414 4606280.807354279 150.18032016754148 255 246 25
569103.5773373414 4606280.682354279 149.08657040596006 202 255 25
569104.1710873414 4606281.604229279 148.58657040596006 174 255 25
569103.2960873414 4606280.791729279 149.08657040596006 202 255 25
569103.3898373414 4606280.869854279 150.21157016754148 255 244 25
569103.7023373414 4606281.697979279 148.64907040596006 177 255 25
569102.8585873414 4606280.901104279 149.14907040596006 205 255 25
569102.9523373414 4606280.979229279 150.24282016754148 255 243 25
569103.3273373414 4606281.744854279 148.64907040596006 177 255 25
569102.4835873414 4606280.947979279 149.14907040596006 205 255 25
569102.5773373414 4606281.026104279 150.24282016754148 255 243 25
569103.0773373414 4606281.838604279 148.64907040596006 177 255 25
569102.2335873414 4606281.026104279 149.14907040596006 205 255 25
569102.3273373414 4606281.119854279 150.24282016754148 255 243 25
569102.7335873414 4606281.916729279 148.64907040596006 177 255 25
569102.6710873414 4606281.885479279 148.71157040596006 181 255 25
569101.8898373414 4606281.135479279 149.14907040596006 205 255 25
569101.9523373414 4606281.197979279 150.27407016754148 255 241 25
569102.3273373414 4606281.994854279 148.64907040596006 177 255 25
569102.2960873414 4606281.947979279 148.64907040596006 177 255 25
569101.4835873414 4606281.197979279 149.21157040596006 209 255 25
569101.5773373414 4606281.276104279 150.27407016754148 255 241 25
569101.5460873414 4606281.244854279 150.33657016754148 255 237 25
569102.0460873414 4606282.072979279 148.64907040596006 177 255 25
569101.1710873414 4606281.276104279 149.21157040596006 209 255 25
569101.2960873414 4606281.369854279 150.30532016754148 255 239 25
569101.6398373414 4606282.135479279 148.71157040596006 181 255 25
569100.7960873414 4606281.338604279 149.21157040596006 209 255 25
569100.8898373414 4606281.416729279 150.33657016754148 255 237 25
569101.2960873414 4606282.166729279 148.71157040596006 181 255 25
569100.4835873414 4606281.416729279 149.21157040596006 209 255 25
569100.6085873414 4606281.494854279 150.33657016754148 255 237 25
569100.5460873414 4606281.447979279 150.33657016754148 255 237 25
569101.0148373414 4606282.260479279 148.71157040596006 181 255 25
569100.2023373414 4606281.526104279 149.27407040596006 212 255 25
569100.2960873414 4606281.619854279 150.36782016754148 255 236 25
569100.1554623414 4606281.479229279 149.27407040596006 212 255 25
569100.2335873414 4606281.557354279 150.36782016754148 255 236 25
569100.6085873414 4606282.354229279 148.71157040596006 181 255 25
569099.7648373414 4606281.572979279 149.27407040596006 212 255 25
569099.8585873414 4606281.651104279 150.39907016754148 255 234 25
569100.3273373414 4606282.385479279 148.77407040596006 184 255 25
569099.5148373414 4606281.635479279 149.27407040596006 212 255 25
569099.6085873414 4606281.729229279 150.39907016754148 255 234 25
569099.5617123414 4606281.666729279 150.39907016754148 255 234 25
569100.0773373414 4606282.479229279 148.77407040596006 184 255 25
569100.0148373414 4606282.447979279 148.77407040596006 184 255 25
569099.2179623414 4606281.729229279 149.33657040596006 216 255 25
569099.3273373414 4606281.807354279 150.39907016754148 255 234 25
569099.6398373414 4606282.572979279 148.77407040596006 184 255 25
569098.7804623414 4606281.807354279 149.33657040596006 216 255 25
569098.8898373414 4606281.885479279 150.43032016754148 255 232 25
569099.3273373414 4606282.635479279 148.77407040596006 184 255 25
569099.2804623414 4606282.572979279 148.83657040596006 188 255 25
569098.4835873414 4606281.869854279 149.33657040596006 216 255 25
569098.5773373414 4606281.947979279 150.46157016754148 255 230 25
569099.0148373414 4606282.666729279 148.83657040596006 188 255 25
569098.2023373414 4606281.947979279 149.39907040596006 219 255 25
569098.2960873414 4606282.026104279 150.46157016754148 255 230 25
569098.7023373414 4606282.760479279 148.83657040596006 188 255 25
569098.6554623414 4606282.729229279 148.83657040596006 188 255 25
569097.8429623414 4606281.994854279 149.39907040596006 219 255 25
569097.9367123414 4606282.088604279 150.49282016754148 255 229 25
569098.3273373414 4606282.822979279 148.83657040596006 188 255 25
569097.5148373414 4606282.104229279 149.39907040596006 219 255 25
569097.6085873414 4606282.197979279 150.49282016754148 255 229 25
569098.0148373414 4606282.947979279 148.89907040596006 191 255 25
569097.9523373414 4606282.885479279 148.83657040596006 188 255 25
569097.2023373414 4606282.229229279 149.39907040596006 219 255 25
569097.1554623414 4606282.182354279 149.46157040596006 223 255 25
569097.2492123414 4606282.260479279 150.52407016754148 255 227 25
569097.6554623414 4606282.947979279 148.83657040596006 188 255 25
569096.8585873414 4606282.229229279 149.46157040596006 223 255 25
569096.9523373414 4606282.291729279 150.55532016754148 255 225 25
569097.3742123414 4606283.010479279 148.89907040596006 191 255 25
569096.5773373414 4606282.291729279 149.46157040596006 223 255 25
569096.6554623414 4606282.385479279 150.55532016754148 255 225 25
569096.9992123414 4606283.135479279 148.89907040596006 191 255 25
569096.2023373414 4606282.416729279 149.52407040596006 226 255 25
569096.2960873414 4606282.479229279 150.55532016754148 255 225 25
569096.2492123414 4606282.447979279 150.58657016754148 255 223 25
569096.6554623414 4606283.166729279 148.89907040596006 191 255 25
569095.8585873414 4606282.479229279 149.52407040596006 226 255 25
569095.9445248414 4606282.541729279 150.58657016754148 255 223 25
569096.4054623414 4606283.229229279 148.89907040596006 191 255 25
569095.6554623414 4606282.572979279 149.58657016754148 230 255 25
569095.6085873414 4606282.510479279 149.52407040596006 226 255 25
569095.7023373414 4606282.604229279 150.61782016754148 255 222 25
569096.0538998414 4606283.291729279 148.96157040596006 195 255 25
569095.2960873414 4606282.635479279 149.58657016754148 230 255 25
569095.2492123414 4606282.604229279 149.58657016754148 230 255 25
569095.3351498414 4606282.666729279 150.64907016754148 255 220 25
569095.6554623414 4606283.385479279 148.96157040596006 195 255 25
569094.8585873414 4606282.666729279 149.58657016754148 230 255 25
569094.9445248414 4606282.760479279 150.68032016754148 255 218 25
569095.4132748414 4606283.479229279 148.96157040596006 195 255 25
569095.3663998414 4606283.416729279 148.96157040596006 195 255 25
569094.6164036561 4606282.760479279 149.58657016754148 230 255 25
569094.7023411561 4606282.854229279 150.64907016754148 255 220 25
569094.6554661561 4606282.822979279 150.68032016754148 255 218 25
569095.0695248414 4606283.510479279 148.96157040596006 195 255 25
569095.0226498414 4606283.479229279 148.96157040596006 195 255 25
569094.2648411561 4606282.822979279 149.64907016754148 233 255 25
569094.3585911561 4606282.916729279 150.68032016754148 255 218 25
569094.3195286561 4606282.885479279 150.68032016754148 255 218 25
569094.7335873414 4606283.572979279 149.02407040596006 198 255 25
569093.9796849061 4606282.916729279 149.64907016754148 233 255 25
569093.9289036561 4606282.854229279 149.64907016754148 233 255 25
569094.0265599061 4606282.947979279 150.71157016754148 255 216 25
569094.4132786561 4606283.635479279 149.02407040596006 198 255 25
569093.6593724061 4606282.979229279 149.71157016754148 237 255 25
569093.7062474061 4606283.041729279 150.74282016754148 255 215 25
569094.0265599061 4606283.729229279 149.02407040596006 198 255 25
569093.2765599061 4606283.072979279 149.71157016754148 237 255 25
569093.3273411561 4606283.135479279 150.77407016754148 255 213 25
569093.7374974061 4606283.760479279 149.08657040596006 202 255 25
569092.9796849061 4606283.135479279 149.71157016754148 237 255 25
569093.0285130311 4606283.166729279 150.77407016754148 255 213 25
569093.4679661561 4606283.854229279 149.08657040596006 202 255 25
569093.4171849061 4606283.822979279 149.08657040596006 202 255 25
569092.7082005311 4606283.229229279 149.77407016754148 240 255 25
569092.6691380311 4606283.166729279 149.77407016754148 240 255 25
569092.7589817811 4606283.260479279 150.80532016754148 255 211 25
569093.0597630311 4606283.947979279 149.08657040596006 202 255 25
569092.3097630311 4606283.291729279 149.77407016754148 240 255 25
569092.3595677186 4606283.354229279 150.83657016754148 255 209 25
569092.7394505311 4606284.010479279 149.14907040596006 205 255 25
569091.9904270936 4606283.354229279 149.83657016754148 244 255 25
569092.0304661561 4606283.416729279 150.86782016754148 255 208 25
569092.4591770936 4606284.072979279 149.14907040596006 205 255 25
569092.4098606873 4606284.041729279 149.14907040596006 205 255 25
569091.7003880311 4606283.447979279 149.83657016754148 244 255 25
569091.7501927186 4606283.479229279 150.89907016754148 255 206 25
569092.1100559998 4606284.135479279 149.14907040596006 205 255 25
569092.0602513123 4606284.072979279 149.21157040596006 209 255 25
569091.3605442811 4606283.479229279 149.83657016754148 244 255 25
569091.4113255311 4606283.541729279 150.89907016754148 255 206 25
569091.7501927186 4606284.197979279 149.14907040596006 205 255 25
569091.0031224061 4606283.572979279 149.89907016754148 247 255 25
569091.0929661561 4606283.666729279 150.93032016754148 255 204 25
569091.0421849061 4606283.604229279 150.93032016754148 255 204 25
569091.3917942811 4606284.291729279 149.21157040596006 209 255 25
569090.6906224061 4606283.697979279 149.96157016754148 251 255 25
569090.6437474061 4606283.666729279 149.89907016754148 247 255 25
569090.7335911561 4606283.729229279 150.93032016754148 255 204 25
569090.6906224061 4606283.697979279 150.96157016754148 255 202 25
569091.0929661561 4606284.322979279 149.21157040596006 209 255 25
569090.3429661561 4606283.697979279 149.96157016754148 251 255 25
569090.4328099061 4606283.791729279 150.99282016754148 255 201 25
569090.3820286561 4606283.760479279 150.99282016754148 255 201 25
569090.8117161561 4606284.416729279 149.27407040596006 212 255 25
569090.0617161561 4606283.791729279 149.96157016754148 251 255 25
569090.1632786561 4606283.885479279 151.02407016754148 255 199 25
569090.1164036561 4606283.822979279 150.99282016754148 255 201 25
569090.3937474061 4606284.479229279 149.27407040596006 212 255 25
569089.6945286561 4606283.916729279 150.02407016754148 254 255 25
569089.6476536561 4606283.854229279 150.02407016754148 254 255 25
569089.7414036561 4606283.979229279 151.02407016754148 255 199 25
569089.6945286561 4606283.916729279 151.05532016754148 255 197 25
569090.0304661561 4606284.541729279 149.33657040596006 216 255 25
569089.3273411561 4606283.979229279 150.02407016754148 254 255 25
569089.2804661561 4606283.916729279 150.02407016754148 254 255 25
569089.3742161561 4606284.010479279 151.05532016754148 255 197 25
569089.3351536561 4606283.979229279 151.05532016754148 255 197 25
569089.8039036561 4606284.604229279 149.33657040596006 216 255 25
569089.1007786561 4606284.010479279 150.02407016754148 254 255 25
569089.0539036561 4606283.979229279 150.02407016754148 254 255 25
569089.1554661561 4606284.072979279 151.05532016754148 255 197 25
569089.1007786561 4606284.041729279 151.08657016754148 255 195 25
569089.4367161561 4606284.697979279 149.33657040596006 216 255 25
569089.3976536561 4606284.666729279 149.33657040596006 216 255 25
569088.7335911561 4606284.135479279 150.05532016754148 255 253 25
569088.6867161561 4606284.072979279 150.05532016754148 255 253 25
569088.7335911561 4606284.135479279 151.11782016754148 255 194 25
569089.0070286561 4606284.729229279 149.39907040596006 219 255 25
569088.3039036561 4606284.166729279 150.11782016754148 255 250 25
569088.3507786561 4606284.229229279 151.14907016754148 255 192 25
569088.7648411561 4606284.854229279 149.39907040596006 219 255 25
569088.7101536561 4606284.822979279 149.39907040596006 219 255 25
569088.0617161561 4606284.260479279 150.11782016754148 255 250 25
569088.0148411561 4606284.229229279 150.14907016754148 255 248 25
569088.1242161561 4606284.322979279 151.18032016754148 255 190 25
569088.0617161561 4606284.291729279 151.14907016754148 255 192 25
569088.4132786561 4606284.916729279 149.39907040596006 219 255 25
569087.7023411561 4606284.354229279 150.14907016754148 255 248 25
569087.7648411561 4606284.416729279 151.18032016754148 255 190 25
569087.7179661561 4606284.354229279 151.21157016754148 255 188 25
569088.0304661561 4606284.947979279 149.46157040596006 223 255 25
569087.3429661561 4606284.385479279 150.18032016754148 255 246 25
569087.3898411561 4606284.447979279 151.21157016754148 255 188 25
569087.7023411561 4606285.041729279 149.46157040596006 223 255 25
569087.0460911561 4606284.510479279 150.18032016754148 255 246 25
569086.9992161561 4606284.479229279 150.18032016754148 255 246 25
569087.0460911561 4606284.541729279 151.24282016754148 255 187 25
569087.3429661561 4606285.104229279 149.52407040596006 226 255 25
569086.6710911561 4606284.572979279 150.24282016754148 255 243 25
569086.6398411561 4606284.541729279 150.27407016754148 255 241 25
569086.6710911561 4606284.604229279 151.27407016754148 255 185 25
569087.0617161561 4606285.197979279 149.52407040596006 226 255 25
569087.0148411561 4606285.166729279 149.52407040596006 226 255 25
569086.3742161561 4606284.635479279 150.27407016754148 255 241 25
569086.4210911561 4606284.697979279 151.30532016754148 255 183 25
569086.3742161561 4606284.666729279 151.33657016754148 255 181 25
569086.7023411561 4606285.260479279 149.52407040596006 226 255 25
569086.0304661561 4606284.729229279 150.30532016754148 255 239 25
569085.9835911561 4606284.697979279 150.30532016754148 255 239 25
569086.0304661561 4606284.760479279 151.33657016754148 255 181 25
569086.3117161561 4606285.322979279 149.58657016754148 230 255 25
569085.6710911561 4606284.822979279 150.33657016754148 255 237 25
569085.6242161561 4606284.760479279 150.33657016754148 255 237 25
569085.6710911561 4606284.822979279 151.39907016754148 255 178 25
569085.9835911561 4606285.416729279 149.58657016754148 230 255 25
569085.3429661561 4606284.885479279 150.36782016754148 255 236 25
569085.2804661561 4606284.854229279 150.36782016754148 255 236 25
569085.3429661561 4606284.916729279 151.43032016754148 255 176 25
569085.6710911561 4606285.479229279 149.58657016754148 230 255 25
569085.6242161561 4606285.447979279 149.64907016754148 233 255 25
569085.0304661561 4606284.979229279 150.39907016754148 255 234 25
569084.9835911561 4606284.947979279 150.39907016754148 255 234 25
569085.0148411561 4606284.979229279 151.43032016754148 255 176 25
569085.3117161561 4606285.510479279 149.64907016754148 233 255 25
569084.6710911561 4606285.010479279 150.43032016754148 255 232 25
569084.6710911561 4606285.041729279 151.46157016754148 255 174 25
569084.9523411561 4606285.604229279 149.64907016754148 233 255 25
569084.3117161561 4606285.104229279 150.46157016754148 255 230 25
569084.3585911561 4606285.166729279 151.46157016754148 255 174 25
569084.3117161561 4606285.135479279 151.52407016754148 255 171 25
569084.5773411561 4606285.697979279 149.71157016754148 237 255 25
569083.9210911561 4606285.197979279 150.49282016754148 255 229 25
569083.9835911561 4606285.260479279 151.52407016754148 255 171 25
569083.9210911561 4606285.229229279 151.52407016754148 255 171 25
569084.2648411561 4606285.760479279 149.71157016754148 237 255 25
569084.2179661561 4606285.729229279 149.71157016754148 237 255 25
569083.6398411561 4606285.260479279 150.55532016754148 255 225 25
569083.5773411561 4606285.229229279 150.55532016754148 255 225 25
569083.6398411561 4606285.291729279 151.55532016754148 255 169 25
569083.9835911561 4606285.822979279 149.77407016754148 240 255 25
569083.3273411561 4606285.322979279 150.55532016754148 255 225 25
569083.3898411561 4606285.416729279 151.55532016754148 255 169 25
569083.3273411561 4606285.354229279 151.58657016754148 255 167 25
569083.5148411561 4606285.947979279 149.77407016754148 240 255 25
569082.8898411561 4606285.447979279 150.61782016754148 255 222 25
569082.9210911561 4606285.510479279 151.61782016754148 255 166 25
569082.8898411561 4606285.479229279 151.64907016754148 255 164 25
569083.1398411561 4606286.010479279 149.83657016754148 244 255 25
569083.1085911561 4606285.979229279 149.83657016754148 244 255 25
569082.5148411561 4606285.510479279 150.64907016754148 255 220 25
569082.5148411561 4606285.541729279 151.68032016754148 255 162 25
569082.8585911561 4606286.072979279 149.89907016754148 247 255 25
569082.2648411561 4606285.604229279 150.68032016754148 255 218 25
569082.2023411561 4606285.572979279 150.68032016754148 255 218 25
569082.2648411561 4606285.635479279 151.68032016754148 255 162 25
569082.4523411561 4606286.166729279 149.89907016754148 247 255 25
569082.4210911561 4606286.104229279 149.89907016754148 247 255 25
569081.8273411561 4606285.666729279 150.71157016754148 255 216 25
569081.8898411561 4606285.729229279 151.74282016754148 255 159 25
569081.8273411561 4606285.697979279 151.74282016754148 255 159 25
569082.0148411561 4606286.229229279 149.96157016754148 251 255 25
569081.9835911561 4606286.197979279 149.96157016754148 251 255 25
569081.3898411561 4606285.760479279 150.77407016754148 255 213 25
569081.3898411561 4606285.791729279 151.80532016754148 255 155 25
569081.6710911561 4606286.322979279 149.96157016754148 251 255 25
569081.6398411561 4606286.291729279 149.96157016754148 251 255 25
569081.0460911561 4606285.854229279 150.80532016754148 255 211 25
569080.9835911561 4606285.791729279 150.80532016754148 255 211 25
569081.0460911561 4606285.885479279 151.83657016754148 255 153 25
569081.2960911561 4606286.385479279 150.02407016754148 254 255 25
569080.7023411561 4606285.947979279 150.83657016754148 255 209 25
569080.6398411561 4606285.916729279 150.83657016754148 255 209 25
569080.7023411561 4606285.979229279 151.83657016754148 255 153 25
569080.6710911561 4606285.947979279 151.86782016754148 255 152 25
569080.8585911561 4606286.479229279 150.02407016754148 254 255 25
569080.2648411561 4606286.010479279 150.89907016754148 255 206 25
569080.2960911561 4606286.041729279 151.89907016754148 255 150 25
569080.4523411561 4606286.572979279 150.05532016754148 255 253 25
569080.4210911561 4606286.541729279 150.08657016754148 255 251 25
569079.8898411561 4606286.135479279 150.93032016754148 255 204 25
569079.8273411561 4606286.104229279 150.93032016754148 255 204 25
569079.8898411561 4606286.166729279 151.93032016754148 255 148 25
569079.8273411561 4606286.135479279 151.93032016754148 255 148 25
569080.0148411561 4606286.635479279 150.11782016754148 255 250 25
569079.4210911561 4606286.197979279 150.96157016754148 255 202 25
569079.4210911561 4606286.229229279 151.99282016754148 255 145 25
569079.6398411561 4606286.697979279 150.14907016754148 255 248 25
569079.0460911561 4606286.260479279 151.02407016754148 255 199 25
569079.0460911561 4606286.291729279 152.02407016754148 255 143 25
569079.2648411561 4606286.822979279 150.18032016754148 255 246 25
569079.2023411561 4606286.791729279 150.18032016754148 255 246 25
569078.6710911561 4606286.385479279 151.05532016754148 255 197 25
569078.6710911561 4606286.416729279 152.05532016754148 255 141 25
569078.7960911561 4606286.916729279 150.21157016754148 255 244 25
569078.7335911561 4606286.885479279 150.24282016754148 255 243 25
569078.2023411561 4606286.479229279 151.11782016754148 255 194 25
569078.2335911561 4606286.510479279 152.11782016754148 255 138 25
569078.3898411561 4606287.010479279 150.24282016754148 255 243 25
569078.3585911561 4606286.979229279 150.27407016754148 255 241 25
569077.8273411561 4606286.572979279 151.18032016754148 255 190 25
569077.8273411561 4606286.635479279 152.14907016754148 255 136 25
569077.7648411561 4606286.572979279 152.18032016754148 255 134 25
569077.9210911561 4606287.072979279 150.30532016754148 255 239 25
569077.3898411561 4606286.697979279 151.18032016754148 255 190 25
569077.3898411561 4606286.729229279 152.18032016754148 255 134 25
569077.3585911561 4606286.697979279 152.21157016754148 255 132 25
569077.4835911561 4606287.135479279 150.36782016754148 255 236 25
569076.9523411561 4606286.760479279 151.24282016754148 255 187 25
569076.9523411561 4606286.791729279 152.24282016754148 255 131 25
569076.9210911561 4606286.760479279 152.27407016754148 255 129 25
569077.0460911561 4606287.260479279 150.39907016754148 255 234 25
569076.5460911561 4606286.885479279 151.30532016754148 255 183 25
569076.5460911561 4606286.916729279 152.30532016754148 255 127 25
569076.4835911561 4606286.885479279 152.30532016754148 255 127 25
569076.5460911561 4606287.385479279 150.46157016754148 255 230 25
569076.0148411561 4606287.010479279 151.36782016754148 255 180 25
569076.0773411561 4606287.041729279 152.36782016754148 255 124 25
569076.0148411561 4606286.979229279 152.36782016754148 255 124 25
569076.1398411561 4606287.447979279 150.49282016754148 255 229 25
569075.6398411561 4606287.072979279 151.43032016754148 255 176 25
569075.6398411561 4606287.104229279 152.39907016754148 255 122 25
569075.5773411561 4606287.072979279 152.43032016754148 255 120 25
569075.7648411561 4606287.541729279 150.52407016754148 255 227 25
569075.2648411561 4606287.166729279 151.46157016754148 255 174 25
569075.2648411561 4606287.197979279 152.43032016754148 255 120 25
569075.2023411561 4606287.166729279 152.46157016754148 255 118 25
569075.2023411561 4606287.666729279 150.58657016754148 255 223 25
569075.1398411561 4606287.635479279 150.64907016754148 255 220 25
569074.7023411561 4606287.291729279 151.52407016754148 255 171 25
569074.7023411561 4606287.322979279 152.52407016754148 255 115 25
569074.6398411561 4606287.291729279 152.52407016754148 255 115 25
569074.7023411561 4606287.760479279 150.64907016754148 255 220 25
569074.6398411561 4606287.729229279 150.64907016754148 255 220 25
569074.2023411561 4606287.385479279 151.58657016754148 255 167 25
569074.2023411561 4606287.416729279 152.55532016754148 255 113 25
569074.1398411561 4606287.385479279 152.58657016754148 255 111 25
569074.3898411561 4606287.854229279 150.68032016754148 255 218 25
569074.3273411561 4606287.822979279 150.68032016754148 255 218 25
569073.8273411561 4606287.479229279 151.61782016754148 255 166 25
569073.8898411561 4606287.541729279 152.61782016754148 255 110 25
569073.8273411561 4606287.479229279 152.61782016754148 255 110 25
569073.8273411561 4606287.947979279 150.74282016754148 255 215 25
569073.3273411561 4606287.604229279 151.68032016754148 255 162 25
569073.2648411561 4606287.572979279 151.68032016754148 255 162 25
569073.3273411561 4606287.604229279 152.68032016754148 255 106 25
569073.2648411561 4606288.041729279 150.80532016754148 255 211 25
569072.8273411561 4606287.729229279 151.74282016754148 255 159 25
569072.7648411561 4606287.697979279 151.74282016754148 255 159 25
569072.7648411561 4606287.729229279 152.74282016754148 255 103 25
569072.8273411561 4606288.166729279 150.86782016754148 255 208 25
569072.3898411561 4606287.854229279 151.80532016754148 255 155 25
569072.3273411561 4606287.822979279 151.86782016754148 255 152 25
569072.3273411561 4606287.854229279 152.80532016754148 255 99 25
569072.3273411561 4606288.229229279 150.89907016754148 255 206 25
569071.8898411561 4606287.947979279 151.86782016754148 255 152 25
569071.8898411561 4606287.947979279 152.86782016754148 255 96 25
569071.8273411561 4606288.322979279 150.96157016754148 255 202 25
569182.0120220948 4606262.572037049 151.3981322288513 255 178 25
569181.8245220948 4606262.884537049 153.2731322288513 255 73 25
569181.6995220948 4606262.697037049 151.5231322288513 255 171 25
569181.6370220948 4606262.572037049 151.3981322288513 255 178 25
569181.5120220948 4606262.947037049 153.2731322288513 255 73 25
569181.3245220948 4606262.697037049 151.5231322288513 255 171 25
569182.3245220948 4606264.822037049 152.3981322288513 255 122 25
569181.1995220948 4606263.072037049 153.3981322288513 255 66 25
569181.1995220948 4606263.072037049 153.3981322288513 255 66 25
569181.0120220948 4606262.822037049 151.5231322288513 255 171 25
569181.9495220948 4606264.884537049 152.3981322288513 255 122 25
569180.7620220948 4606263.197037049 153.3981322288513 255 66 25
569180.5745220948 4606262.884537049 151.5231322288513 255 171 25
569181.5745220948 4606264.947037049 152.3981322288513 255 122 25
569180.4495220948 4606263.259537049 153.3981322288513 255 66 25
569180.1995220948 4606262.947037049 151.5231322288513 255 171 25
569181.2620220948 4606265.072037049 152.3981322288513 255 122 25
569180.1370220948 4606263.322037049 153.3981322288513 255 66 25
569179.8870220948 4606263.072037049 151.6481322288513 255 164 25
569180.8870220948 4606265.197037049 152.3981322288513 255 122 25
569179.6995220948 4606263.384537049 153.5231322288513 255 59 25
569179.5745220948 4606263.134537049 151.6481322288513 255 164 25
569180.5745220948 4606265.259537049 152.5231322288513 255 115 25
569179.4495220948 4606263.572037049 153.5231322288513 255 59 25
569179.1995220948 4606263.259537049 151.6481322288513 255 164 25
569180.1995220948 4606265.322037049 152.5231322288513 255 115 25
569179.0745220948 4606263.634537049 153.5231322288513 255 59 25
569178.8245220948 4606263.322037049 151.6481322288513 255 164 25
569179.8870220948 4606265.447037049 152.5231322288513 255 115 25
569178.6995220948 4606263.697037049 153.5231322288513 255 59 25
569178.5120220948 4606263.384537049 151.6481322288513 255 164 25
569179.5745220948 4606265.509537049 152.6481322288513 255 108 25
569178.4495220948 4606263.822037049 153.64813175201414 255 52 25
569178.1995220948 4606263.509537049 151.7731322288513 255 157 25
569179.1995220948 4606265.634537049 152.6481322288513 255 108 25
569178.0120220948 4606263.884537049 153.64813175201414 255 52 25
569177.8245220948 4606263.634537049 151.7731322288513 255 157 25
569177.8245220948 4606263.572037049 151.7731322288513 255 157 25
569178.8245220948 4606265.697037049 152.6481322288513 255 108 25
569177.6995220948 4606264.009537049 153.64813175201414 255 52 25
569177.4495220948 4606263.697037049 151.7731322288513 255 157 25
569178.6370220948 4606265.759537049 152.6481322288513 255 108 25
569177.4495220948 4606264.072037049 153.64813175201414 255 52 25
569177.4495220948 4606264.009537049 153.77313175201414 255 45 25
569177.2620220948 4606263.759537049 151.7731322288513 255 157 25
569178.2620220948 4606265.884537049 152.7731322288513 255 101 25
569177.0745220948 4606264.134537049 153.77313175201414 255 45 25
569176.8870220948 4606263.822037049 151.8981322288513 255 150 25
569177.8870220948 4606265.947037049 152.7731322288513 255 101 25
569176.7620220948 4606264.259537049 153.77313175201414 255 45 25
569176.6995220948 4606264.197037049 153.77313175201414 255 45 25
569176.5120220948 4606263.947037049 151.8981322288513 255 150 25
569177.6370220948 4606266.072037049 152.7731322288513 255 101 25
569176.4495220948 4606264.322037049 153.77313175201414 255 45 25
569176.4495220948 4606264.322037049 153.77313175201414 255 45 25
569176.2620220948 4606264.009537049 151.8981322288513 255 150 25
569177.3245220948 4606266.134537049 152.7731322288513 255 101 25
569176.1370220948 4606264.384537049 153.89813175201414 255 38 25
569176.1370220948 4606264.322037049 153.89813175201414 255 38 25
569175.9495220948 4606264.072037049 151.8981322288513 255 150 25
569177.0120220948 4606266.197037049 152.8981322288513 255 94 25
569177.0120220948 4606266.197037049 152.8981322288513 255 94 25
569175.8245220948 4606264.447037049 153.89813175201414 255 38 25
569175.6995220948 4606264.197037049 152.0231322288513 255 143 25
569175.6370220948 4606264.134537049 152.0231322288513 255 143 25
569176.6995220948 4606266.322037049 152.8981322288513 255 94 25
569176.6370220948 4606266.259537049 152.8981322288513 255 94 25
569175.5120220948 4606264.572037049 153.89813175201414 255 38 25
569175.3245220948 4606264.322037049 152.0231322288513 255 143 25
569176.3245220948 4606266.384537049 152.8981322288513 255 94 25
569175.1995220948 4606264.634537049 153.89813175201414 255 38 25
569175.1370220948 4606264.572037049 153.89813175201414 255 38 25
569175.0120220948 4606264.384537049 152.0231322288513 255 143 25
569174.9495220948 4606264.322037049 152.0231322288513 255 143 25
569176.1370220948 4606266.447037049 152.8981322288513 255 94 25
569174.9495220948 4606264.697037049 153.77313175201414 255 45 25
569174.9495220948 4606264.634537049 154.02313175201414 255 31 25
569174.7620220948 4606264.447037049 152.0231322288513 255 143 25
569174.7620220948 4606264.384537049 152.0231322288513 255 143 25
569175.8870220948 4606266.572037049 152.8981322288513 255 94 25
569174.6995220948 4606264.822037049 153.5231322288513 255 59 25
569174.6995220948 4606264.822037049 154.02313175201414 255 31 25
569174.6370220948 4606264.759537049 154.02313175201414 255 31 25
569174.4495220948 4606264.572037049 152.0231322288513 255 143 25
569174.4495220948 4606264.509537049 151.3981322288513 255 178 25
569174.4495220948 4606264.509537049 152.0231322288513 255 143 25
569175.5120220948 4606266.634537049 153.0231322288513 255 87 25
569175.4495220948 4606266.572037049 153.0231322288513 255 87 25
569174.4495220948 4606265.009537049 152.1481322288513 255 136 25
569174.3870220948 4606265.009537049 152.1481322288513 255 136 25
569174.3245220948 4606264.947037049 152.1481322288513 255 136 25
569174.3245220948 4606264.884537049 152.1481322288513 255 136 25
569174.3245220948 4606264.884537049 153.3981322288513 255 66 25
569174.2620220948 4606264.822037049 152.1481322288513 255 136 25
569174.3245220948 4606264.884537049 154.02313175201414 255 31 25
569174.2620220948 4606264.759537049 152.1481322288513 255 136 25
569174.1995220948 4606264.697037049 152.1481322288513 255 136 25
569174.1995220948 4606264.634537049 152.1481322288513 255 136 25
569174.1370220948 4606264.634537049 152.1481322288513 255 136 25
569174.0745220948 4606264.572037049 152.1481322288513 255 136 25
569174.0745220948 4606264.509537049 151.3981322288513 255 178 25
569175.2620220948 4606266.759537049 152.5231322288513 255 115 25
569175.2620220948 4606266.697037049 153.0231322288513 255 87 25
569175.2620220948 4606266.697037049 153.0231322288513 255 87 25
569174.6995220948 4606265.947037049 145.77313202023504 25 255 34
569174.6995220948 4606265.947037049 146.89813199043272 79 255 25
569174.6995220948 4606265.947037049 148.14813199043272 149 255 25
569174.6995220948 4606265.947037049 149.14813199043272 205 255 25
569174.8245220948 4606266.009537049 153.1481322288513 255 80 25
569174.6995220948 4606265.884537049 150.2731322288513 255 241 25
569174.7620220948 4606266.009537049 153.0231322288513 255 87 25
569174.6995220948 4606265.884537049 151.1481322288513 255 192 25
569174.6995220948 4606265.947037049 153.0231322288513 255 87 25
569174.6995220948 4606265.884537049 152.5231322288513 255 115 25
569174.6995220948 4606265.884537049 153.2731322288513 255 73 25
569174.6995220948 4606265.884537049 154.14813175201414 255 25 25
569174.6370220948 4606265.822037049 154.14813175201414 255 25 25
569174.6370220948 4606265.759537049 154.14813175201414 255 25 25
569174.5745220948 4606265.697037049 154.14813175201414 255 25 25
569174.5745220948 4606265.634537049 154.14813175201414 255 25 25
569174.5120220948 4606265.572037049 154.14813175201414 255 25 25
569174.4495220948 4606265.572037049 154.14813175201414 255 25 25
569174.4495220948 4606265.509537049 154.14813175201414 255 25 25
569174.3870220948 4606265.447037049 154.02313175201414 255 31 25
569174.3870220948 4606265.384537049 154.14813175201414 255 25 25
569174.3245220948 4606265.322037049 154.14813175201414 255 25 25
569174.3245220948 4606265.322037049 154.14813175201414 255 25 25
569174.2620220948 4606265.259537049 154.14813175201414 255 25 25
569174.1995220948 4606265.197037049 154.14813175201414 255 25 25
569174.0745220948 4606264.947037049 153.3981322288513 255 66 25
569174.0120220948 4606264.947037049 154.02313175201414 255 31 25
569173.8870220948 4606264.634537049 152.0231322288513 255 143 25
569173.8245220948 4606264.572037049 151.5231322288513 255 171 25
569174.9495220948 4606266.759537049 152.3981322288513 255 122 25
569174.9495220948 4606266.759537049 153.1481322288513 255 80 25
569174.8870220948 4606266.572037049 153.1481322288513 255 80 25
569174.8245220948 4606266.572037049 153.1481322288513 255 80 25
569174.7620220948 4606266.509537049 153.1481322288513 255 80 25
569174.7620220948 4606266.447037049 153.1481322288513 255 80 25
569174.6995220948 4606266.384537049 153.1481322288513 255 80 25
569174.6995220948 4606266.322037049 153.1481322288513 255 80 25
569174.6370220948 4606266.259537049 153.1481322288513 255 80 25
569174.6370220948 4606266.197037049 153.1481322288513 255 80 25
569174.5745220948 4606266.197037049 153.1481322288513 255 80 25
569174.5120220948 4606266.134537049 153.1481322288513 255 80 25
569174.5120220948 4606266.072037049 153.1481322288513 255 80 25
569174.4495220948 4606266.009537049 153.1481322288513 255 80 25
569174.4495220948 4606265.947037049 152.1481322288513 255 136 25
569174.4495220948 4606266.009537049 154.14813175201414 255 25 25
569174.4495220948 4606265.947037049 153.2731322288513 255 73 25
569174.4495220948 4606265.947037049 154.14813175201414 255 25 25
569174.3870220948 4606265.947037049 153.3981322288513 255 66 25
569174.3870220948 4606265.884537049 154.14813175201414 255 25 25
569174.3870220948 4606265.884537049 153.5231322288513 255 59 25
569174.3245220948 4606265.822037049 153.5231322288513 255 59 25
569174.3245220948 4606265.759537049 153.64813175201414 255 52 25
569173.8245220948 4606265.072037049 154.02313175201414 255 31 25
569173.7620220948 4606265.009537049 154.02313175201414 255 31 25
569173.6370220948 4606264.822037049 152.0231322288513 255 143 25
569173.5745220948 4606264.759537049 152.0231322288513 255 143 25
569173.5120220948 4606264.697037049 151.8981322288513 255 150 25
569174.6995220948 4606266.822037049 153.1481322288513 255 80 25
569174.6370220948 4606266.697037049 152.2731322288513 255 129 25
569173.4495220948 4606265.009537049 153.89813175201414 255 38 25
569173.4495220948 4606264.947037049 153.77313175201414 255 45 25
569173.2620220948 4606264.759537049 151.8981322288513 255 150 25
569173.2620220948 4606264.697037049 151.8981322288513 255 150 25
569174.4495220948 4606266.947037049 153.0231322288513 255 87 25
569174.3870220948 4606266.884537049 153.0231322288513 255 87 25
569174.3245220948 4606266.822037049 152.3981322288513 255 122 25
569173.1995220948 4606265.134537049 153.89813175201414 255 38 25
569173.1995220948 4606265.134537049 153.89813175201414 255 38 25
569173.0120220948 4606264.822037049 151.8981322288513 255 150 25
569174.0745220948 4606266.947037049 152.8981322288513 255 94 25
569174.0745220948 4606266.884537049 152.7731322288513 255 101 25
569172.8870220948 4606265.197037049 153.77313175201414 255 45 25
569172.6995220948 4606264.947037049 151.8981322288513 255 150 25
569172.6995220948 4606264.884537049 151.8981322288513 255 150 25
569173.8245220948 4606267.009537049 152.8981322288513 255 94 25
569172.6370220948 4606265.259537049 153.77313175201414 255 45 25
569172.4495220948 4606264.947037049 151.8981322288513 255 150 25
569173.6370220948 4606267.009537049 152.8981322288513 255 94 25
569172.4495220948 4606265.322037049 153.77313175201414 255 45 25
569172.3870220948 4606265.259537049 153.77313175201414 255 45 25
569172.1995220948 4606265.009537049 151.7731322288513 255 157 25
569173.2620220948 4606267.072037049 152.7731322288513 255 101 25
569172.0745220948 4606265.384537049 153.64813175201414 255 52 25
569171.8870220948 4606265.072037049 151.7731322288513 255 157 25
569172.9495220948 4606267.197037049 152.7731322288513 255 101 25
569171.7620220948 4606265.447037049 153.64813175201414 255 52 25
569171.5745220948 4606265.134537049 151.7731322288513 255 157 25
569172.7620220948 4606267.259537049 152.7731322288513 255 101 25
569171.5745220948 4606265.509537049 153.64813175201414 255 52 25
569171.3870220948 4606265.259537049 151.7731322288513 255 157 25
569172.4495220948 4606267.259537049 152.6481322288513 255 108 25
569171.2620220948 4606265.572037049 153.5231322288513 255 59 25
569171.2620220948 4606265.509537049 153.64813175201414 255 52 25
569171.0745220948 4606265.259537049 151.6481322288513 255 164 25
569172.1370220948 4606267.322037049 152.6481322288513 255 108 25
569170.9495220948 4606265.634537049 153.5231322288513 255 59 25
569170.9495220948 4606265.572037049 153.5231322288513 255 59 25
569170.7620220948 4606265.322037049 151.6481322288513 255 164 25
569171.8245220948 4606267.447037049 152.6481322288513 255 108 25
569170.6995220948 4606265.759537049 153.5231322288513 255 59 25
569170.5120220948 4606265.447037049 151.6481322288513 255 164 25
569171.5745220948 4606267.447037049 152.5231322288513 255 115 25
569170.3870220948 4606265.759537049 153.5231322288513 255 59 25
569170.1995220948 4606265.509537049 151.6481322288513 255 164 25
569171.3245220948 4606267.509537049 152.5231322288513 255 115 25
569170.1370220948 4606265.822037049 153.3981322288513 255 66 25
569169.9495220948 4606265.509537049 151.5231322288513 255 171 25
569171.0120220948 4606267.634537049 152.5231322288513 255 115 25
569169.8245220948 4606265.947037049 153.3981322288513 255 66 25
569169.6682720948 4606265.634537049 151.5231322288513 255 171 25
569170.6995220948 4606267.634537049 152.3981322288513 255 122 25
569169.5120220948 4606265.947037049 153.3981322288513 255 66 25
569169.3557720948 4606265.697037049 151.5231322288513 255 171 25
569170.4495220948 4606267.759537049 152.3981322288513 255 122 25
569169.2932720948 4606266.072037049 153.2731322288513 255 73 25
569169.1057720948 4606265.759537049 151.3981322288513 255 178 25
569170.1995220948 4606267.822037049 152.3981322288513 255 122 25
569170.1370220948 4606267.759537049 152.2731322288513 255 129 25
569168.9807720948 4606266.134537049 153.2731322288513 255 73 25
569168.8245220948 4606265.884537049 151.3981322288513 255 178 25
569168.7932720948 4606265.822037049 151.3981322288513 255 178 25
569169.7620220948 4606267.822037049 152.2731322288513 255 129 25
569168.6057720948 4606266.197037049 153.2731322288513 255 73 25
569168.4495220948 4606265.884537049 151.3981322288513 255 178 25
569169.5432720948 4606267.947037049 152.2731322288513 255 129 25
569168.3557720948 4606266.259537049 153.1481322288513 255 80 25
569168.1995220948 4606265.947037049 151.3981322288513 255 178 25
569169.2620220948 4606268.009537049 152.2731322288513 255 129 25
569168.0745220948 4606266.322037049 153.1481322288513 255 80 25
569167.8870220948 4606266.072037049 151.2731322288513 255 185 25
569168.9182720948 4606268.009537049 152.1481322288513 255 136 25
569167.7307720948 4606266.322037049 153.1481322288513 255 80 25
569167.5432720948 4606266.072037049 151.2731322288513 255 185 25
569168.6682720948 4606268.134537049 152.1481322288513 255 136 25
569168.6057720948 4606268.072037049 152.1481322288513 255 136 25
569167.4495220948 4606266.447037049 153.0231322288513 255 87 25
569167.2932720948 4606266.197037049 151.2731322288513 255 185 25
569168.2620220948 4606268.197037049 152.0231322288513 255 143 25
569167.1057720948 4606266.572037049 153.0231322288513 255 87 25
569167.0745220948 4606266.509537049 153.0231322288513 255 87 25
569166.9182720948 4606266.259537049 151.1481322288513 255 192 25
569166.8870220948 4606266.197037049 151.1481322288513 255 192 25
569167.9495220948 4606268.197037049 152.0231322288513 255 143 25
569166.7620220948 4606266.572037049 153.0231322288513 255 87 25
569166.6057720948 4606266.322037049 151.1481322288513 255 192 25
569167.6682720948 4606268.259537049 152.0231322288513 255 143 25
569166.5120220948 4606266.634537049 153.0231322288513 255 87 25
569166.3245220948 4606266.384537049 151.1481322288513 255 192 25
569167.2620220948 4606268.384537049 151.8981322288513 255 150 25
569166.1057720948 4606266.759537049 152.8981322288513 255 94 25
569165.9182720948 4606266.447037049 151.0231322288513 255 199 25
569166.9495220948 4606268.447037049 151.8981322288513 255 150 25
569166.9182720948 4606268.447037049 152.0231322288513 255 143 25
569165.7932720948 4606266.822037049 152.8981322288513 255 94 25
569165.7307720948 4606266.822037049 152.8981322288513 255 94 25
569165.6057720948 4606266.572037049 151.0231322288513 255 199 25
569165.5745220948 4606266.509537049 151.0231322288513 255 199 25
569166.6682720948 4606268.509537049 151.8981322288513 255 150 25
